ply
format ascii 1.0
element vertex 1386
property float x
property float y
property float z
property uchar red
property uchar green
property uchar blue
end_header
0.293075 5.20853 12.8156 78 32 24
1.22306 -1.81787 12.7852 116 124 84
3.14615 -0.262548 13.5704 96 68 44
-1.08188 0.584835 10.2261 14 11 2
-0.937459 0.561851 8.28289 106 114 87
2.29484 1.08237 11.0204 139 116 102
2.36931 1.14461 10.7517 56 27 10
-2.28406 1.49955 11.1421 104 89 62
-1.46542 1.57418 10.7485 128 88 64
-1.26426 1.76959 10.7857 33 10 4
-0.948892 1.98447 10.8576 98 50 36
-1.71426 2.01483 8.67809 111 110 90
2.41236 2.03081 8.85694 92 82 66
2.11173 2.58629 11.5518 90 70 66
2.43935 3.2498 9.01099 90 67 55
2.46549 3.09382 8.17913 145 137 134
-0.287461 -0.719537 11.6102 38 42 16
0.266984 0.332175 12.4308 110 112 107
2.35127 0.937905 11.1139 30 10 3
2.07311 1.09052 11.1414 36 19 12
-1.16664 0.938375 8.35108 81 86 56
-2.33805 1.27283 11.7496 146 110 80
2.02368 1.23141 11.0672 116 95 78
-1.72163 2.04244 8.58907 126 124 102
-2.01568 2.63987 11.9866 126 122 98
2.64824 3.10817 8.31808 82 42 23
2.05645 4.43044 12.3451 80 43 35
4.13455 -1.91667 12.7696 73 66 26
3.25975 -0.743341 10.5946 94 86 58
2.5977 -0.771409 14.6694 142 145 108
2.41248 3.1722 8.62277 82 54 39
2.15873 -0.70584 14.5889 109 88 61
-1.08938 1.46827 8.75371 146 106 82
2.29607 -0.800278 15.3272 90 69 41
2.22584 -0.560901 12.9651 142 137 98
-3.69872 -4.13783 11.861 93 96 47
3.96706 -3.25284 9.96183 83 88 60
1.88391 -1.64187 10.9669 76 80 66
0.827217 -1.37256 9.2688 90 98 88
-3.23389 -1.40727 13.2566 140 129 98
3.5118 -1.29256 12.8668 104 114 72
-3.01513 -0.491379 12.0414 148 134 86
2.00875 -0.721637 14.9833 132 114 102
-1.25739 0.0332868 9.01788 92 95 69
3.24053 -0.208456 11.1477 114 71 54
-0.229732 0.194505 12.0045 60 66 51
0.230297 0.883982 10.5563 89 70 58
0.0719698 1.00958 10.1047 44 20 8
2.441 0.958366 11.5034 46 16 5
2.7797 0.957384 11.4176 90 43 16
-1.19582 1.24366 10.5693 90 66 55
3.16084 1.0881 12.4979 58 31 18
-1.25215 1.30647 10.7022 47 24 13
-0.0367412 1.18144 9.84323 50 20 11
2.24026 1.16749 10.0261 56 28 16
0.0952845 1.43765 10.0788 54 22 10
1.24416 1.36343 10.0215 98 78 60
-1.39062 1.65529 10.6983 86 46 26
1.27667 1.38771 10.0112 88 70 51
2.59164 1.41186 11.3226 50 22 14
-1.28411 1.67096 10.7109 63 24 7
1.35605 1.48256 9.8324 124 104 90
2.05152 1.37812 9.53799 155 138 125
2.04775 1.47948 9.69044 90 72 52
1.50274 1.59888 9.53931 132 118 108
1.60916 1.66189 9.39411 80 68 50
2.30028 1.92228 11.3651 114 95 93
1.12348 2.09668 10.6849 32 7 4
-0.965042 2.36472 10.9586 112 70 61
2.74375 2.69077 13.0254 108 92 84
2.71455 2.8202 13.1172 116 98 93
-0.171718 2.90847 10.8461 108 61 50
1.11311 3.17616 11.3975 122 96 92
1.18486 3.18451 11.2648 42 12 10
0.546585 3.54224 11.4846 93 49 42
0.139301 3.85856 11.7125 118 86 76
1.07448 4.05613 11.9268 107 78 75
1.06794 4.19873 12.0654 118 93 90
2.04655 4.75116 13.4843 120 94 90
2.18277 4.89317 13.8955 79 51 45
1.97992 4.92156 13.7275 80 60 58
1.02577 4.80766 12.5534 120 98 96
0.208766 5.07443 12.5929 127 88 78
1.007 5.2915 13.1184 100 64 57
2.31631 -7.5037 14.4918 105 110 58
-4.17433 -3.98289 11.474 60 58 30
-3.32461 -3.84184 11.782 85 86 44
-1.71994 -4.05905 13.4959 121 123 76
-1.81225 -2.03987 11.8905 76 78 52
1.84453 -1.60249 10.9894 66 68 54
3.56429 -1.30136 12.5919 147 155 119
-2.98562 -0.821083 12.2915 105 88 54
-0.580925 -0.412572 9.38907 100 104 72
0.379412 -0.215116 12.4576 96 100 95
-2.82609 0.65083 11.8477 146 122 102
-4.23973 0.699881 7.77139 82 80 59
3.24267 0.482807 12.2707 105 79 52
3.10689 0.60968 11.5739 94 66 50
0.111865 0.877817 10.4272 40 24 14
-0.341733 0.999076 10.5332 26 12 10
2.53723 0.946452 11.3444 100 52 22
2.78434 0.945386 11.3771 90 46 20
-1.16514 1.22742 10.3653 77 52 40
2.25704 1.05186 11.0709 112 92 82
-0.0500718 1.19572 10.0948 96 66 56
1.82027 1.09256 10.3034 60 56 41
2.33072 1.11156 11.0127 136 114 106
0.148754 1.43587 10.2015 42 16 5
2.58954 1.41626 11.3724 61 36 26
2.36495 1.4498 10.778 92 60 54
2.39461 1.52864 10.762 135 104 99
1.42136 1.54305 9.69429 110 94 78
-1.41111 2.05863 11.3989 113 74 64
3.15176 2.03376 13.9673 66 51 34
2.30751 1.90184 11.3205 116 99 96
1.16 2.0659 10.8346 110 87 84
2.89767 2.62328 13.7096 58 34 20
2.7372 2.70016 12.9838 101 86 79
2.71712 2.79071 13.1396 114 102 96
2.65086 2.85071 13.1488 54 32 25
-1.90315 2.40256 6.81986 82 86 60
1.11384 3.15067 11.3673 111 85 80
1.04218 3.20861 11.4303 47 18 10
1.15329 3.2177 11.4724 40 16 15
-1.82894 3.02566 6.45043 134 122 108
1.08942 4.13931 11.8647 104 80 76
1.74043 4.73866 13.0898 116 88 86
1.80262 4.74495 13.1138 79 50 50
0.124357 5.14086 12.7077 92 40 29
0.333576 5.25394 12.8061 96 49 38
0.253917 5.27548 12.7947 80 40 34
0.528629 5.29212 12.9554 90 52 44
0.996687 5.26812 13.0315 74 40 34
0.861375 5.40992 13.1545 83 46 38
2.34138 -7.46615 14.3942 80 86 33
5.19762 -4.05515 9.36792 102 106 60
5.02839 -3.9389 9.65916 157 161 113
-1.33734 -1.60692 12.0257 85 87 58
3.5581 -1.32496 12.676 144 156 116
2.63105 -0.995174 14.1741 128 129 99
-0.590232 -0.405762 9.41703 112 117 85
-1.18427 -0.248227 9.26916 130 122 74
-2.9544 0.152865 11.5762 136 96 77
-0.154405 0.193968 11.6942 56 61 46
0.096114 1.00198 9.96729 51 26 14
0.177115 1.07038 9.91453 64 42 36
-0.449984 1.16835 10.4666 20 8 2
2.30842 1.02485 11.1359 34 13 6
1.82178 1.08849 10.3258 46 42 28
2.1641 1.15398 11.0936 116 85 66
-1.19115 1.192 7.74046 93 96 71
2.30056 1.17007 10.9741 50 28 16
2.80742 1.20263 11.2299 74 37 24
1.91074 1.23533 10.0314 114 96 78
-1.26095 1.67425 10.6889 72 30 14
2.45642 1.44924 10.9495 156 132 123
-1.38092 1.73236 10.8822 117 91 80
2.00955 1.45253 10.0613 151 134 122
-0.302731 1.64265 10.0667 104 56 28
-1.49637 1.56537 7.80876 100 100 78
3.14828 1.98571 13.6011 71 56 39
2.36749 1.88522 11.2564 32 13 8
3.05509 2.17275 13.7538 64 41 27
-1.52092 1.78143 7.23473 85 86 64
1.1147 2.07371 10.6018 26 8 4
2.73955 2.67155 12.8534 102 86 79
0.0781439 2.66092 10.9038 120 92 85
-5.55899 2.86324 7.37423 82 72 53
0.0309497 3.08094 11.1146 54 16 8
1.15176 3.21928 11.5666 43 20 19
0.0581311 4.02388 11.8902 63 18 8
0.114557 4.61885 12.2224 54 20 14
-0.081553 5.35547 12.986 122 75 56
0.821806 5.41442 13.3238 126 90 86
-5.33331 -5.46789 11.4074 112 116 73
-4.89023 -4.74601 11.4752 55 56 32
5.18788 -3.90864 9.58545 41 50 24
1.24748 -1.0802 11.3909 86 90 74
2.65851 -0.90307 13.847 56 52 22
3.58051 -0.341483 11.345 114 78 63
3.37669 -0.0765478 11.3914 134 95 81
3.08644 0.46682 11.4468 129 100 84
1.57101 0.804467 10.8366 49 48 36
-1.07332 0.891337 8.07489 92 94 62
-0.311242 1.01323 10.461 20 6 3
-1.1229 0.963267 8.08615 100 102 73
2.44405 0.957419 11.5201 45 16 4
-0.502365 1.17244 10.5751 18 8 4
-1.2743 1.27054 10.6029 73 56 42
3.24581 1.23319 13.308 102 88 74
2.28079 1.18223 10.985 60 36 22
1.93149 1.19966 9.9378 100 86 66
2.74394 1.26455 11.5219 82 50 39
0.0823039 1.44439 10.2769 78 49 38
-0.88066 1.64884 10.4326 132 80 52
2.47032 1.4335 10.8751 152 126 120
-1.37469 1.51926 7.48077 88 88 66
2.36447 1.9021 11.3801 32 12 8
1.20024 2.00951 10.5844 112 90 84
2.70879 2.42841 12.6909 38 15 10
-0.0296954 3.11473 11.3052 57 22 11
1.12187 3.13309 11.3377 115 84 78
-0.972763 3.51603 11.9932 111 88 84
0.0671203 4.01242 11.7415 60 15 6
0.80682 5.44555 13.1992 78 43 35
-5.34612 -5.46031 11.3994 123 126 82
-5.09783 -4.96463 11.3618 41 46 22
-1.44054 -4.54371 13.2068 81 91 56
-5.1419 -1.74924 13.9967 109 90 41
1.24189 -1.92713 13.0088 146 152 116
-3.3008 -1.42459 13.2732 148 140 88
-2.89716 -1.03292 12.6981 131 117 76
-2.96173 -0.807231 12.203 127 112 72
1.33107 -0.970373 12.0964 155 152 116
2.56821 -0.925536 14.8902 60 42 22
2.03082 -0.705934 14.468 91 74 60
3.56367 -0.336851 11.5487 138 102 86
-2.24272 0.125581 11.1935 57 57 39
-2.87324 0.416136 12.043 84 59 36
3.10403 0.558523 11.6429 106 78 58
2.90653 0.655221 11.4501 142 95 78
2.42219 0.953471 11.3017 30 10 2
2.75731 0.953895 11.4469 114 74 47
1.78519 0.99933 10.2089 15 11 2
2.10872 1.08756 10.9873 28 12 6
2.36823 1.16524 11.3271 77 50 36
2.25828 1.17105 10.8886 84 56 39
1.86534 1.25415 10.3566 98 86 65
-0.0187903 1.41542 10.0913 44 13 5
2.02201 1.39643 9.79315 122 107 96
2.27968 1.46416 10.7515 77 40 32
3.13769 1.66528 13.4054 116 102 86
-0.0843774 1.66846 10.3656 85 45 32
-1.44296 1.54993 7.66973 96 95 74
1.43367 1.6042 9.6775 150 124 121
2.78732 2.76015 13.4396 60 44 38
0.0484199 2.6795 10.9712 77 48 41
1.04796 3.63118 11.8738 93 72 68
0.238654 5.26554 12.825 100 64 58
-3.05286 -0.826023 12.4585 100 81 50
-0.381441 -0.195828 12.0425 27 14 4
2.78744 -0.240097 13.2352 90 80 58
-2.80506 0.428303 11.8167 88 61 38
-0.893679 0.535966 8.22544 79 86 52
3.18603 0.910765 12.1396 83 58 40
2.42242 0.956036 11.4884 30 12 6
2.29852 0.999561 11.1855 36 12 6
1.79199 0.998173 10.1144 24 21 10
2.20035 1.05117 11.2266 82 56 42
2.28589 1.07475 11.0398 128 107 98
2.10853 1.19255 10.9499 116 85 66
1.94921 1.1945 9.78306 126 106 88
0.161551 1.42929 10.4094 40 16 8
-1.35513 1.5202 7.41448 102 102 80
1.40341 1.59814 9.7542 148 123 119
-1.54665 1.81283 7.25636 106 104 82
2.95977 2.50922 13.8283 114 98 86
-1.75597 2.12658 7.07677 88 91 66
2.6934 2.75135 12.9954 78 56 50
-2.81936 -7.07638 15.8497 76 82 34
-4.62696 -1.88772 13.5868 58 50 14
-3.10593 -0.83496 12.5565 106 88 56
2.51488 -0.945872 14.1865 100 97 66
-2.98365 -0.27401 12.094 116 108 55
2.30685 -0.620275 14.6997 96 80 52
-0.335071 -0.211961 11.782 30 18 8
3.1018 0.514254 11.2515 128 100 83
-0.585524 1.1286 10.5608 12 6 5
2.40335 0.939729 11.4912 31 12 4
3.2271 1.20256 12.7826 87 72 56
2.86245 1.33382 12.0222 134 96 88
3.19322 1.42649 13.076 76 53 36
2.40835 1.43656 10.7496 98 70 65
2.20944 1.49544 10.8307 74 37 28
-1.43257 1.72204 7.59443 72 70 48
3.03462 2.14119 13.5159 78 54 40
2.93843 2.63571 14.5761 114 101 88
-1.64242 2.91521 6.35809 68 64 34
-1.8292 3.00007 6.62004 135 124 104
0.985648 4.77542 12.5917 94 61 59
0.234666 5.23061 12.8279 88 46 40
-3.20432 -0.248701 11.7205 148 133 78
0.12536 0.877235 10.6521 78 62 52
2.80511 0.851994 13.1133 140 98 83
0.20625 1.05647 9.96551 16 4 2
1.95188 1.18784 9.84321 122 102 84
2.03349 1.36344 9.7212 140 123 113
1.31634 5.14504 13.1299 70 38 36
-1.19934 -0.246269 9.33338 127 119 73
-2.92763 0.316734 11.5561 82 45 24
-1.58854 1.12753 8.03108 111 104 77
2.80744 1.19665 11.3063 63 27 14
2.38348 1.51524 10.9561 100 72 68
1.15956 1.60065 10.2526 63 25 9
1.11695 3.12964 11.3557 122 95 88
1.98256 3.5477 12.2688 118 94 93
2.11475 4.76315 13.6117 66 34 31
1.78453 4.76574 13.1672 78 49 46
1.96044 3.60524 12.3391 111 88 86
-0.0675263 5.34951 12.9322 92 44 24
4.15934 -1.77305 12.3018 86 82 46
1.5715 0.797632 10.8588 21 18 9
0.212964 0.96259 10.3123 23 11 4
2.29166 1.16628 11.0435 64 40 28
2.35202 1.44416 10.6945 128 98 90
2.31087 1.91165 11.586 74 58 54
1.74594 4.73175 12.9903 112 85 82
1.4686 5.16658 13.3058 102 77 74
-1.23854 1.2544 7.74758 88 92 65
1.08042 3.49003 11.6406 122 104 98
-4.90102 -4.73208 11.4472 50 50 28
-1.33582 -1.6082 11.9515 80 80 50
2.29713 1.01033 11.184 34 12 6
2.20157 1.04318 11.1224 82 55 42
0.14428 1.45286 10.2955 47 18 8
1.13898 1.39215 10.0284 104 68 48
1.11725 3.12797 11.3096 88 54 46
-1.17932 0.973841 10.913 10 5 2
2.41023 1.4519 10.815 120 91 86
0.105293 3.89765 11.7567 102 58 46
-1.84911 3.02734 6.56339 107 97 74
-5.10509 -5.01015 11.3519 39 48 26
0.114547 0.883704 10.7156 70 50 41
2.30489 0.97417 11.7895 46 20 15
-1.25475 1.21916 7.7858 88 91 66
1.91977 1.2484 9.95347 85 67 48
-4.7509 -4.49291 11.583 76 75 42
-4.31289 -2.10119 13.8754 151 148 94
3.36073 -6.212 12.7314 73 85 38
4.1301 -1.9252 12.3603 77 79 40
4.18714 -1.80118 12.3917 80 84 43
2.83497 1.26275 11.2797 73 38 28
-1.86307 3.05155 6.47068 128 114 100
5.10752 -3.9554 9.68162 58 62 28
2.39994 1.12286 10.9991 72 44 26
2.11857 4.75594 13.6032 79 42 38
-1.66859 1.46563 7.64986 130 121 98
-1.84299 3.01492 6.63622 107 98 76
4.58426 -3.85141 10.1909 118 120 82
0.227805 5.29286 12.8821 82 40 32
4.55966 -3.83689 10.1137 154 160 114
0.00443311 1.47261 10.6619 66 39 30
-5.10296 -5.24422 11.4602 80 84 47
3.69951 -1.21784 12.7368 46 40 12
2.8389 -2.34433 10.6637 62 72 52
-3.91827 -2.03695 13.7661 106 105 54
3.62198 -1.43464 12.7307 94 101 60
3.56802 -1.31109 12.7651 127 131 92
2.19014 -0.434161 13.11 32 16 2
-1.24848 1.24044 10.5625 73 54 42
1.73976 4.80552 13.3574 98 70 67
0.19506 4.02509 11.8569 53 18 12
-1.76232 2.98171 6.49363 82 73 48
0.238641 4.45648 12.1473 58 21 16
-5.0089 -4.88664 11.2665 41 42 18
-0.689994 -1.96542 11.1797 154 155 105
4.18415 -1.79058 12.3838 80 81 40
-0.577972 1.11821 11.7667 55 36 24
2.73036 2.69736 14.8263 47 24 16
2.10441 4.75511 13.6164 73 36 34
2.93644 0.637426 11.3172 127 84 68
2.26228 1.02501 11.3837 40 14 7
2.17129 1.08369 11.093 46 25 12
-1.76367 2.97654 6.49327 104 95 72
1.3752 5.13794 13.1081 117 91 90
-2.11619 -3.59635 8.66752 88 90 44
-3.29469 -1.4039 13.2008 146 139 88
3.54258 -1.31369 12.5915 150 160 114
-1.36981 2.43163 11.2999 25 4 0
-1.69313 2.93383 6.4523 84 78 50
2.59048 -0.73628 12.9978 146 153 112
-1.86933 0.228262 9.42469 136 124 74
-0.810602 4.78725 13.1536 106 67 60
-0.0574991 4.66463 12.4346 49 13 4
0.312011 -0.193469 12.338 88 91 87
0.192829 -0.092517 12.6108 112 112 112
-0.74176 2.77179 10.8355 28 8 4
-2.34038 2.97677 6.485 76 72 52
-1.64305 -5.51772 14.2072 106 112 70
5.08951 -3.9312 9.63424 44 45 12
1.39735 -2.48318 6.01052 120 118 81
0.201932 -2.68572 10.8593 120 124 102
-2.74756 -1.6144 13.5062 100 100 50
0.807932 -1.33409 9.33845 86 96 84
-1.06175 -0.889068 10.3071 150 150 104
3.83587 -1.25028 12.5854 130 120 86
-0.548143 -0.402452 9.27018 112 118 84
2.73287 0.552644 11.3288 58 24 8
-1.24053 1.47695 10.5385 108 58 28
-0.871111 1.64836 10.3985 89 37 16
2.69699 2.89206 12.9629 30 12 10
-2.15255 -2.78646 12.3007 104 108 65
-1.04298 -0.817428 10.0405 40 44 13
-3.84635 0.248388 15.0328 109 108 70
0.0477847 1.41329 10.4565 72 43 33
-0.832208 1.6303 10.2778 134 83 56
1.33414 1.47543 9.98859 132 105 92
-1.68373 1.47622 7.68216 116 108 81
2.44536 1.51407 10.9422 48 26 20
3.14808 2.04864 13.7453 118 106 88
-1.19706 2.77281 11.6113 112 78 68
0.130616 4.66051 12.5262 106 78 74
-2.82392 -7.09573 15.8343 88 92 42
-3.70616 -4.14348 11.8546 99 98 52
-1.05095 -0.817295 10.0342 36 40 12
-1.19613 1.28938 10.5357 68 44 34
-0.875444 1.64328 10.3934 129 78 52
2.43568 1.51821 11.109 56 33 28
-1.8185 1.78764 7.41359 136 126 104
1.12822 3.13801 11.2853 120 95 90
-2.39494 3.08717 6.46602 124 112 98
5.21745 -4.10002 9.54824 91 97 54
-3.37214 -3.86246 11.8617 97 98 52
-2.73368 -3.30987 12.0736 90 93 50
-1.41392 -1.98925 12.1835 76 80 48
-1.01109 -0.803699 9.85103 36 40 14
-2.92812 -0.829548 12.2478 125 112 72
-1.10761 -0.739201 10.0576 93 94 63
0.167956 1.07994 10.0116 52 34 28
-1.80772 1.78703 7.41672 136 128 106
-0.0488131 5.33623 12.8263 96 49 29
-2.4133 -3.01731 12.1321 86 87 48
-1.09622 -0.935492 10.3714 152 150 98
2.12012 1.16602 10.9716 119 87 70
-1.54047 1.78841 7.25526 87 86 62
1.15937 2.00439 10.696 80 46 42
1.10874 2.76461 11.0986 92 74 70
-1.93375 -2.54656 12.5036 78 82 43
-1.55187 -2.33343 11.9252 154 152 105
-0.524812 -0.469688 9.81098 47 56 29
2.37272 1.51672 10.8446 108 74 69
-1.20305 2.75717 11.5835 100 64 55
-0.792682 4.0354 12.0979 99 63 56
1.14555 1.40525 10.5036 68 42 23
1.40147 1.62252 9.80833 150 124 120
-0.858719 4.10603 12.4463 124 92 86
2.1724 4.84998 13.9982 112 83 76
-1.06086 -0.953515 10.2502 148 147 94
-1.12337 -0.512676 9.2796 44 28 9
0.323354 0.296742 12.4458 113 114 108
-0.574148 1.07854 10.4263 10 6 5
1.20267 1.37723 10.1829 72 47 30
-3.35929 -3.86111 11.8649 86 88 46
-1.5993 -3.9852 13.0928 106 111 66
1.34546 -2.47825 6.1684 156 155 119
-0.76981 -2.92151 12.3361 108 114 79
0.785122 -2.851 13.3911 61 69 36
1.0929 -1.96446 7.72678 88 92 87
0.750356 -2.80348 13.4319 148 156 126
-1.85547 -2.52936 12.3795 94 98 54
0.743633 -2.7101 13.4249 138 144 117
-0.544134 -2.20858 12.2914 112 119 79
1.83807 -1.63297 11.2061 86 89 76
0.82833 -1.14118 10.3373 108 117 92
0.80108 -1.09898 10.4179 143 150 122
2.87026 -0.821362 12.1793 116 130 87
-2.30118 -0.233628 10.1061 140 134 82
-1.68745 -0.0353381 9.92087 74 78 58
-2.22271 0.168646 10.0425 118 113 78
-0.156398 0.199019 11.7424 68 72 58
-0.980124 0.603398 8.43416 93 102 74
-1.07021 0.894012 8.08621 114 120 87
0.179026 0.97669 10.3853 42 27 18
0.150489 1.06888 10.0812 52 34 28
1.80703 1.06202 10.5102 32 26 16
0.0789092 1.40657 10.3342 86 60 50
1.15102 1.39858 10.4149 54 29 12
1.97357 1.36324 10.3355 135 119 106
1.28714 1.55812 10.2343 64 36 24
3.06646 2.13332 13.5689 62 41 22
-1.24522 2.40085 11.2993 106 70 63
-1.58654 2.63791 11.8133 122 78 64
-1.90887 2.90161 12.3587 140 113 92
2.67314 2.77745 12.8516 47 28 22
-0.979342 3.41701 11.8592 130 103 92
1.1199 3.39622 11.2568 126 105 103
1.69483 4.7065 12.8624 56 25 22
-4.02842 -4.38396 11.8481 60 60 28
-3.6984 -4.13742 11.8444 94 96 49
1.34671 -2.45684 6.11184 153 154 116
-0.720486 -2.87098 12.0912 104 112 74
0.991195 -1.83721 8.25335 96 102 96
0.786913 -1.3714 9.46018 86 93 85
0.705334 -1.14026 9.73308 78 88 77
0.331932 -1.06388 9.67583 70 73 58
-2.12445 -0.0561567 9.84137 76 79 56
-1.7153 -0.0437916 9.96983 70 73 53
2.95542 -0.184898 13.5537 50 28 10
1.54404 0.818462 11.1986 44 41 29
2.83474 1.25666 11.4051 64 30 20
2.93601 1.34288 11.6014 108 78 68
1.44654 1.6548 10.2857 148 132 125
-1.7087 3.4139 12.6647 144 118 98
-3.42358 -3.90492 12.0154 104 104 60
0.993313 -1.84202 8.26988 90 95 89
-1.51126 -2.25377 12.1549 99 104 61
1.55198 -1.34906 11.1733 62 66 52
-2.38642 -0.247653 10.3644 144 136 83
-1.81113 -0.252606 11.1319 148 146 91
-2.06211 -0.0451995 9.64181 72 74 50
-1.89964 0.0979972 10.1659 69 66 48
-2.15962 0.182647 9.86144 114 106 70
0.153573 0.826137 10.6031 88 75 66
-1.13088 0.972006 8.0832 97 100 73
2.72108 1.30926 11.5263 58 27 18
3.24812 1.47662 13.7385 84 70 54
-1.43934 1.66116 10.8031 99 50 28
1.98389 1.37561 10.433 138 120 108
1.44698 1.6248 10.0758 150 132 126
-1.2441 2.03602 11.0952 57 20 12
-1.75632 3.46072 12.8644 142 117 97
2.08138 3.33836 11.5115 81 50 43
1.32287 -2.37699 5.99145 136 138 96
0.997412 -1.82606 8.14611 84 88 82
0.786533 -1.35324 9.43361 84 92 84
4.14789 -1.75138 12.0786 86 86 50
0.150039 1.00877 10.6414 15 6 0
2.26777 1.05426 10.9767 108 88 78
2.15488 1.17182 10.9769 120 86 67
-1.34256 1.70329 10.6836 122 96 86
-1.20309 1.66669 10.5296 78 30 18
1.42849 1.63864 10.1431 152 132 127
-1.15229 2.00983 10.7233 38 9 2
2.30737 1.86427 11.3049 100 78 74
3.05194 2.15733 13.4455 52 28 11
1.26713 1.97624 10.4186 44 20 16
-2.06551 2.98247 12.9205 140 115 92
1.06765 2.44407 10.8915 36 12 8
-1.16602 2.75204 11.4904 113 82 72
2.8505 2.69325 13.558 48 26 16
1.11235 3.52512 11.3881 113 96 94
2.67484 3.22161 8.44678 80 45 26
-3.72133 -4.06844 11.3728 46 50 22
-2.20683 -2.81123 12.4422 96 100 58
-1.73931 -2.43737 11.8563 108 112 70
-0.119811 -1.07727 10.5711 91 88 48
-0.826337 0.224418 8.7242 78 88 52
0.121609 1.09188 10.268 42 24 18
-0.187871 1.18175 10.3132 23 12 8
-1.27949 1.70748 10.8338 75 28 16
-1.31237 1.79364 10.9856 40 15 8
2.43347 1.51486 10.9738 78 56 51
-1.33917 2.01086 11.0569 96 56 46
2.78116 2.04145 12.5401 71 50 42
-1.86972 2.49795 11.7848 147 128 103
-1.1537 2.93588 11.939 26 8 6
-1.79436 3.45502 12.9068 148 125 105
2.77728 3.24715 13.548 92 70 56
-0.988239 3.5128 11.9809 98 70 65
1.12668 3.69863 12.071 40 14 11
-1.93842 3.08761 6.79185 128 116 98
5.19762 -4.11015 9.70994 156 161 111
-3.71354 -4.13844 11.8079 99 102 55
-2.16175 -2.7638 12.2372 72 78 41
1.31907 -2.22577 8.48027 110 119 82
-1.47531 -2.20095 11.8745 96 101 62
-1.1764 0.941117 8.28013 84 88 61
2.50918 0.981654 11.5339 97 54 24
0.0516059 1.19453 9.57039 104 70 60
2.29753 1.8425 11.1532 84 59 54
2.68189 2.43407 12.6626 36 16 11
-2.14974 3.27872 13.3919 139 118 96
-1.63805 3.34443 12.1929 144 128 106
1.16458 3.24539 11.8261 42 24 20
-1.74085 3.75606 12.8866 130 105 82
1.09675 3.52209 11.4887 102 84 81
-2.07903 -2.72426 11.9266 91 98 55
-1.5277 -2.22639 12.0113 82 88 51
1.31229 -1.80598 11.8887 82 89 55
-2.94658 -0.420504 11.9329 150 142 87
-1.70764 0.476041 8.94701 118 102 63
-2.26632 0.808557 9.72241 131 109 82
2.87913 0.670446 11.1223 152 107 90
2.73056 0.870198 11.129 116 76 48
0.120819 1.05621 10.4235 46 32 26
2.19301 1.04168 10.8651 69 44 30
2.37994 1.12602 10.9488 87 62 46
2.69441 1.21469 11.6068 141 106 88
-1.58281 1.96141 7.69389 154 144 121
-0.394702 2.67102 10.7645 32 6 0
0.0897794 2.60231 10.587 64 32 26
-0.709764 2.80131 10.8032 20 6 4
2.59874 2.88825 12.6914 41 22 16
1.68498 4.92789 13.4444 84 58 56
1.35385 -1.83565 11.6955 112 118 80
-3.1085 -0.999093 13.3779 143 132 83
-1.83019 -0.432294 11.2258 148 143 89
2.88162 -0.10322 11.9412 80 60 46
-1.44478 1.76099 7.51837 61 61 35
2.67162 2.3307 11.813 46 24 20
-1.90495 3.50789 13.1435 142 126 103
2.77005 2.49318 9.40332 79 48 28
1.00099 4.72537 12.6992 112 83 80
4.95093 -3.91789 9.75338 158 160 109
4.939 -3.92913 9.83654 139 138 96
-1.51242 -4.63481 13.4801 88 96 62
4.15727 -3.61092 9.99967 126 130 85
3.36592 -2.94169 10.2679 90 96 68
3.24551 -2.67415 10.5406 72 80 66
2.44961 1.43929 10.725 152 127 118
-1.35948 1.74969 10.8035 127 102 95
5.01681 -3.92885 9.58883 158 160 111
4.97885 -3.92534 9.65084 148 150 100
-0.779366 -3.98446 13.0924 95 106 56
3.66308 -3.16198 10.1467 76 84 55
0.150045 0.903019 10.8053 99 79 68
5.07676 -3.91803 9.53236 56 58 23
3.65483 -3.13467 9.99236 73 80 52
2.33772 -2.05824 10.5993 71 76 58
3.68816 -3.18945 10.2325 76 83 55
0.117806 -3.11653 10.967 132 138 89
3.14347 -0.291172 13.5604 118 98 72
2.62348 1.42718 11.447 82 54 48
1.61959 1.64555 9.25588 76 64 46
3.26148 -5.98822 12.1025 72 86 46
1.55851 -1.3577 11.0409 50 56 40
2.18669 1.60389 9.05923 82 62 44
-1.35559 2.46262 11.3812 24 8 3
-3.0615 -0.942949 12.7912 94 76 48
3.54969 -0.296035 11.5883 134 100 83
2.77736 -0.23185 11.4331 96 80 60
-5.29557 -5.4323 11.3486 87 88 46
-2.30272 -5.84649 14.4337 100 99 57
4.59135 -3.85364 10.1917 89 92 50
3.08598 -2.71727 10.4041 68 76 52
-2.27565 -2.43661 11.909 66 69 45
2.33368 -2.09652 10.8358 76 81 60
2.31897 -2.0709 10.7888 82 88 66
0.716575 -1.15679 9.82906 74 84 70
3.62157 -1.4414 12.7192 102 108 66
3.88382 -1.32954 12.8159 144 148 110
-0.411816 1.17557 10.4324 34 8 4
-1.56598 1.17981 7.9396 151 143 118
3.24531 1.49025 13.646 102 92 78
2.43634 1.35971 10.8852 82 57 47
2.46178 1.49274 10.8133 74 54 50
2.405 1.53892 10.7197 134 104 100
2.25437 2.23515 11.5535 120 100 97
2.93229 2.67642 13.9713 51 28 16
2.15805 2.57396 11.7453 120 98 93
2.34055 2.90398 12.2243 106 76 73
-0.987137 3.43533 11.9236 124 90 80
2.63781 3.3758 13.3592 105 84 80
1.09231 3.60878 11.6528 114 96 92
2.51965 4.00605 13.744 98 74 70
2.17418 4.92923 13.9816 76 48 41
1.67153 5.10487 13.4152 68 50 46
0.250318 5.12243 12.7235 57 18 10
1.49817 5.13038 13.179 60 33 30
0.869835 5.42032 13.1629 70 30 19
0.658304 5.39288 12.7589 106 69 58
-6.17962 -6.07696 11.7349 98 93 48
-4.85661 -4.71986 11.3714 47 47 24
3.61334 -1.45035 12.6983 140 151 106
-3.03058 -1.05864 12.957 88 74 42
-0.145609 0.200765 11.6669 57 61 47
3.23151 1.34558 13.5525 68 54 42
2.84133 1.27315 11.2382 85 52 38
-1.40015 1.52172 7.55226 100 102 80
-1.31951 1.6415 7.54635 104 108 86
3.137 2.04141 14.0941 58 47 31
3.14023 2.11194 14.0878 93 82 68
2.21543 1.99402 11.4549 25 3 0
2.78616 2.35326 12.9212 98 74 64
2.30831 2.18922 11.2612 76 55 50
2.13102 2.30723 11.6511 34 11 10
2.7259 2.4272 12.8763 37 20 12
2.7056 2.81068 13.1573 76 62 57
-0.966057 3.52611 11.995 115 90 78
0.224068 4.01034 11.753 51 12 3
1.69005 5.06568 13.3168 79 61 58
5.11062 -3.93128 9.61373 45 49 16
2.56531 -2.31243 10.7532 70 75 54
-1.82877 -2.04642 11.9119 78 79 52
0.667793 -2.33252 13.3915 119 125 82
4.11169 -1.90833 12.3487 72 70 32
-3.00383 -1.05146 12.9222 70 56 27
-1.2546 1.30198 10.7869 47 28 17
1.77878 1.03471 10.3425 15 12 3
-1.2504 1.22523 7.8084 92 95 70
2.42921 1.50573 10.9778 124 100 95
2.33536 1.55827 11.242 92 64 59
1.39804 1.54561 9.66017 110 78 62
0.0305202 2.29106 10.7298 100 70 66
2.24858 2.2108 11.4843 100 75 72
2.62241 2.8909 13.2023 38 22 19
-1.01737 3.46336 12.0272 116 78 67
2.60853 3.39913 13.4908 87 64 60
2.49612 4.0308 13.8946 95 70 64
-1.83817 3.00687 6.61864 102 92 68
2.33517 4.70454 14.2333 94 65 58
0.182347 4.52918 12.3423 62 28 22
0.0956067 5.42981 12.9491 100 58 43
-5.9368 -5.86824 11.2855 82 79 38
-4.84614 -5.05002 11.5565 124 122 78
2.58223 -2.28454 10.6225 72 76 54
-4.7709 -1.91911 13.8897 56 44 8
-3.28715 -1.41565 13.3095 150 142 96
-1.2776 0.964252 11.0623 22 10 4
0.212173 1.14665 9.87671 18 6 0
-1.63822 1.7494 11.3666 107 60 36
2.75086 1.36505 11.2728 100 71 64
2.58838 1.41923 11.2975 34 14 6
-1.44331 1.69303 7.73645 136 138 116
2.29689 1.87947 11.3517 113 92 92
2.233 1.9751 11.2953 24 2 0
2.71665 2.41785 12.8053 33 15 10
-1.10965 2.73879 11.3775 108 72 61
2.61039 3.37755 13.3845 80 57 53
2.34838 4.67636 14.081 94 68 60
0.184142 5.1591 12.6962 117 80 68
1.08059 5.2715 13.1056 72 35 30
-5.9189 -5.87487 11.3111 74 70 32
5.12832 -3.97159 9.68872 40 47 15
2.57696 1.41962 11.3177 96 74 66
-1.47089 1.72183 7.74076 100 97 76
2.28587 1.87138 11.3693 64 36 33
2.78496 2.04394 12.594 22 8 4
1.0882 2.06784 10.6374 30 9 4
0.031449 2.30831 10.733 89 61 56
-1.01003 2.77865 11.3933 41 14 6
2.72203 2.74326 12.9673 62 48 42
0.0875452 5.23696 12.8995 110 68 55
3.01781 2.16981 13.4508 46 24 15
-1.31941 2.411 11.1811 46 13 3
-0.465744 2.69855 11.0583 36 6 1
-0.770817 2.90659 11.3638 28 6 0
0.193936 4.46618 12.0044 116 80 72
0.1199 5.38524 12.7081 115 70 55
-3.13507 -1.03712 13.3071 153 142 89
-1.45191 1.55015 7.61529 90 90 68
2.7249 2.08839 12.781 28 10 6
-3.09209 -1.08726 13.3192 104 88 52
-0.304704 0.417579 14.0323 93 92 85
-1.45886 1.07904 10.7211 35 28 15
2.30892 1.40282 10.2453 90 56 48
2.73024 3.66079 14.506 79 44 30
-3.99819 -4.37003 11.7808 83 80 38
-4.10104 -4.18104 11.5341 79 82 55
4.63787 -3.90749 10.3406 148 150 109
2.84591 1.28632 11.3037 99 62 52
1.95579 1.37047 9.87273 120 102 86
3.14138 2.03396 14.0457 55 46 32
1.8588 4.22243 12.6595 114 90 84
2.06057 4.73859 13.45 112 85 81
2.31442 -2.07493 10.8015 74 79 59
1.96918 1.3759 9.82675 120 102 86
1.39981 1.43631 9.63377 125 97 75
-1.78655 1.78272 7.35841 132 124 106
2.22764 2.23465 11.5615 108 83 80
0.110083 2.64122 10.8097 116 88 82
-0.696261 4.768 12.8813 111 76 69
2.22604 4.77706 13.8577 113 86 80
-1.86886 -5.82717 14.5252 88 92 58
-2.24522 -2.42983 11.8325 58 62 38
3.33556 1.07951 13.0691 86 68 57
1.97644 1.37138 9.83753 105 90 70
1.48167 1.62006 9.61542 142 113 98
2.31681 1.84606 11.3123 107 82 79
0.845 -3.21223 13.4119 124 128 87
1.7593 0.989727 10.3189 23 22 10
-1.53187 1.11544 7.94868 142 132 108
-1.2957 1.33074 10.9384 46 25 13
-0.740588 4.77955 12.9724 118 82 74
0.0739691 5.43326 12.9384 99 56 42
0.150333 1.11866 9.9873 42 25 18
3.13148 1.65824 13.5278 82 65 50
-0.892991 4.10232 12.4787 100 60 52
2.52749 3.96091 13.6093 80 51 46
2.3746 4.63214 13.9706 85 56 50
-5.91914 -5.87 11.2706 90 88 48
0.146864 1.14094 10.0098 41 26 18
2.75368 3.70442 14.5976 79 49 33
0.235036 5.28475 12.8938 78 34 25
0.0990394 1.15601 10.1702 23 11 6
1.43152 1.55712 9.43518 159 122 104
-0.78606 2.89471 11.2968 31 8 2
0.0446613 5.425 12.91 113 68 54
3.94219 -3.32236 10.171 58 61 36
-2.33077 2.99414 6.44151 144 134 117
-4.3322 -4.54312 11.5224 87 88 66
-3.36416 -3.86341 11.9038 98 96 50
1.06826 -1.9179 7.87629 88 90 84
-1.57977 -1.81814 11.9379 73 77 48
4.11761 -1.91995 12.3922 70 69 30
0.702666 -1.37756 9.23422 84 90 76
-0.892525 -1.07804 10.6654 99 102 64
-3.04029 -1.03581 12.9894 129 117 80
2.94037 1.34651 11.553 94 64 54
2.23326 1.98897 11.3971 28 7 5
-0.719154 4.80971 12.9703 116 86 80
1.03309 4.65783 12.4286 122 97 93
0.288912 5.35519 12.7229 152 116 104
-2.12969 -1.43356 12.2461 122 120 68
0.698518 -1.3838 9.22937 74 78 66
0.79334 -1.35847 9.40937 86 90 80
-1.06836 -0.994759 10.5372 60 59 22
-1.98965 1.26314 12.3143 104 80 62
2.96411 1.40676 11.6809 114 86 75
2.42593 1.51791 11.1431 70 48 44
2.81314 2.00384 12.5271 30 12 7
-2.01925 2.66347 12.469 138 113 92
2.3168 2.91874 12.312 102 73 70
0.0457003 3.08304 11.112 56 20 8
-4.03821 -4.38565 11.8305 84 80 44
-4.15565 -4.06824 11.4752 82 80 58
-4.20166 -3.99893 11.5399 58 57 34
3.67043 -3.1663 10.159 72 77 52
3.36834 -2.9339 10.2512 69 72 48
-1.7616 -2.31901 12.0754 86 86 56
4.17962 -1.76632 12.3602 88 88 50
-0.915648 -1.00426 10.2512 112 110 70
2.72567 1.38123 11.3912 98 69 60
-1.75727 1.77126 7.31267 130 120 100
-1.20535 2.414 11.0067 30 8 1
-1.88516 3.04396 6.54398 142 129 114
0.183259 4.5832 12.2353 120 94 92
2.21944 4.76878 13.8118 112 86 78
-4.42289 -4.34581 11.3554 90 90 67
-3.99403 -4.35793 11.7586 88 84 44
4.154 -1.77263 12.4337 88 85 48
0.228845 0.816576 10.4338 59 48 38
-1.80539 1.79811 7.37544 131 120 100
1.28816 2.04929 10.5866 21 8 4
-2.00361 2.84638 12.5481 108 80 58
-2.09717 3.08479 13.0385 149 124 102
1.18135 2.71508 10.9299 122 104 100
1.1145 3.15038 11.3727 124 98 92
-3.35555 -3.82839 11.7814 52 58 24
-1.38586 -1.62082 12.0828 88 86 60
-1.6212 1.79312 11.5519 96 61 46
-2.15502 2.24407 12.2887 157 138 116
-1.51287 1.78895 7.18756 93 92 71
1.20089 2.00735 10.5715 104 80 75
1.31256 2.0287 10.5454 20 10 5
2.87033 2.67043 13.8768 45 22 13
1.2165 2.4321 10.9811 27 11 8
1.02649 2.79964 11.1041 44 16 13
1.1008 3.54175 11.5558 104 82 80
1.00898 4.7564 12.5587 120 104 102
-3.61045 -4.07127 11.6183 72 78 34
-1.6951 -2.65307 10.8952 134 134 87
4.14061 -1.79426 12.5457 88 82 47
2.81831 1.98063 12.1779 24 10 6
1.0272 2.09434 10.7331 26 7 2
-2.04693 2.87793 12.6315 136 110 88
-1.02943 3.47952 12.0092 80 48 40
-0.891175 5.21736 13.3084 101 72 64
4.07141 -1.87052 12.3831 86 84 44
-1.42037 1.75799 7.55544 144 138 117
-1.44873 2.48451 11.5323 42 16 8
-1.09565 2.90001 11.7101 24 9 5
-1.66284 2.90455 6.48145 86 81 52
-0.0458706 4.666 12.3779 46 11 4
-1.95337 -3.51956 8.42832 73 74 26
-3.37267 -1.40263 13.2256 149 143 84
-1.71698 4.23751 13.5924 140 116 96
-2.80651 -7.15885 16.0357 110 113 66
-1.44886 -5.16601 14.0505 110 116 70
-1.70474 -5.02356 13.7627 95 99 67
-1.43759 -4.53273 13.2466 96 106 71
1.41008 -2.46573 5.96882 108 104 66
1.24024 -2.43459 6.43625 142 139 100
1.14938 -2.40445 6.65214 138 136 100
1.09595 -2.32239 6.7197 143 142 109
1.10771 -1.81533 8.4427 89 99 89
-3.92067 -2.03202 13.7574 101 100 47
-1.13457 -1.5925 11.9815 70 74 42
-2.12971 0.167774 9.83472 116 83 60
-1.04601 0.961268 7.88924 96 100 70
-1.28118 2.04961 10.9915 113 79 72
1.23188 2.08792 10.7486 26 7 2
-1.90158 2.60131 12.1565 141 114 91
1.18996 2.06473 10.3818 31 7 4
2.14554 2.31805 11.6836 26 6 4
2.93761 2.54678 13.7865 110 92 79
0.126505 2.61321 10.7212 112 84 77
2.83988 3.18397 13.8479 100 76 58
-1.62974 3.44938 12.6288 130 98 82
2.63304 3.4009 13.3188 112 91 88
1.10265 3.44884 11.5184 122 104 99
1.13549 4.00708 11.6942 122 94 92
0.158006 4.59339 12.3317 121 97 94
-1.70224 -5.5649 14.3567 98 104 59
-1.49826 -4.59011 13.4218 94 104 70
1.44001 -2.51892 5.92217 152 150 104
-2.45555 -3.04145 12.2434 105 103 61
1.0232 -1.84153 8.17264 90 93 87
-3.93459 -2.03823 13.8014 116 116 61
-1.31289 -1.94148 11.9515 88 89 56
-0.782318 -1.17729 11.0414 72 74 38
0.133665 1.0961 10.0425 62 38 31
1.97203 1.49143 10.0593 142 127 112
-2.09712 2.23064 12.2079 156 136 114
1.09458 2.46487 10.9064 37 12 8
2.85244 3.17663 13.8222 106 86 69
-0.978149 3.41626 11.8722 103 66 54
-0.927525 3.47257 12.0161 54 20 12
2.64753 3.3383 13.2655 102 76 72
2.61985 3.40132 13.3479 90 70 68
1.16697 3.41169 11.5333 58 28 22
1.13525 3.42272 11.4084 122 104 98
-1.45189 -5.16807 14.0323 100 105 64
1.04425 -2.45731 6.82832 142 148 100
1.08684 -2.4484 6.86733 120 119 82
1.09383 -2.33272 6.70401 130 132 95
-0.646365 -1.89273 11.291 155 152 106
-1.55294 -1.79438 11.8829 72 75 46
0.819914 -1.34688 9.27062 86 91 81
-1.39249 1.55095 7.48099 98 96 74
-1.34759 1.66084 7.54509 110 110 87
1.29078 1.76889 10.4764 34 8 2
2.1155 2.33257 11.7722 29 8 6
-1.06481 2.7076 11.2186 122 86 76
1.23694 2.41863 10.8529 24 8 4
2.83443 3.23155 14.1166 117 98 82
1.15045 3.12773 11.2312 126 103 97
-1.67703 4.19022 13.5713 138 111 93
0.207602 4.03473 11.8509 52 13 3
-1.85439 -5.80777 14.4881 78 86 52
-1.80311 -5.69706 14.4674 122 127 88
-1.78985 -5.10064 13.9432 87 92 60
-1.51385 -4.62167 13.5152 92 102 67
1.35963 -2.43529 6.0878 153 152 106
1.20115 -2.41455 6.48774 153 154 106
-2.67972 -3.27724 11.8916 108 108 64
-2.44827 -3.03195 12.2084 90 90 50
0.654195 -2.33951 13.4245 136 143 98
-0.685612 -1.90602 11.3358 152 150 100
-0.398967 -1.1983 11.0515 48 56 16
-2.13937 0.203238 9.50932 141 128 89
-1.71841 1.4757 7.75484 136 127 103
1.28639 1.47184 9.81884 132 99 86
2.4038 1.54183 11.2888 62 42 38
1.48535 1.60139 9.64333 146 122 117
-0.455855 2.70207 11.0148 44 8 3
-0.879899 2.81561 11.0971 22 4 2
-0.995087 3.4482 11.9325 118 86 78
1.17801 3.41469 11.467 55 27 23
2.55944 3.86721 13.1696 76 48 42
-1.71583 2.94327 6.54189 85 79 48
-2.02613 3.09261 6.8864 115 102 84
1.27522 -2.43183 6.24696 134 135 86
1.08354 -2.35472 6.73502 132 134 97
-1.46144 -2.00481 12.3126 85 86 54
0.146845 0.88849 10.6839 90 73 62
-1.28524 1.23687 7.85388 87 86 57
2.71646 1.38279 11.6933 100 70 61
2.18963 2.24423 11.7579 94 71 69
1.12389 2.40195 10.9684 88 58 54
-1.28133 2.63343 10.675 144 124 102
2.7774 2.77555 13.2412 33 17 12
-0.738658 2.87777 11.2579 29 6 1
1.11199 2.76087 11.074 68 40 39
2.82909 3.18613 13.8906 88 62 42
-1.00752 3.4556 11.9518 104 70 62
2.80229 3.61488 14.0744 80 50 35
-1.66576 2.91501 6.49448 75 70 39
-0.729392 5.08107 12.8052 108 78 71
-3.9944 -4.35858 11.6971 92 89 56
-0.447442 -1.23078 11.0896 46 55 16
-1.68054 0.247971 9.36232 152 141 104
2.39968 1.36876 10.9891 105 80 74
2.43192 1.53315 11.1808 35 15 11
-1.35116 1.69132 7.49743 110 106 84
1.20514 1.97162 10.4839 82 49 44
-1.75965 3.54464 12.9329 146 128 107
1.17102 3.44838 11.1751 104 83 80
-3.133 -3.72777 11.3526 104 106 62
3.87914 -3.3126 10.0738 72 72 44
2.86318 2.61908 12.9806 32 14 8
2.91827 2.96697 13.9332 96 62 35
2.83448 3.18054 13.8302 85 58 40
-1.8304 3.87806 13.3507 116 80 58
2.82933 3.48498 13.387 80 46 31
-1.37064 3.99242 12.5598 141 119 100
-1.65003 4.50574 13.6484 136 113 97
1.09284 4.04397 11.7004 72 36 33
-4.78085 -1.96074 13.9246 103 96 50
-5.20901 -1.77771 14.1283 106 88 38
-0.351148 1.07891 10.3123 74 48 40
2.87129 3.09601 13.305 86 56 38
-0.950578 5.22605 13.4594 130 102 94
3.36773 -2.98585 10.4862 86 90 67
0.999069 -1.61353 8.99164 91 102 87
2.10366 -1.87117 10.9853 74 80 58
1.22914 -1.91616 13.0221 146 150 116
-1.32906 -1.59362 12.0423 87 88 60
-2.82123 0.596798 11.8811 88 52 31
-1.08441 0.887946 8.11121 110 115 82
-1.40158 1.75318 10.9451 108 79 70
-1.7451 1.54335 7.79048 140 134 104
-1.45751 1.5743 7.65482 106 106 83
2.87052 1.65023 11.8576 34 14 8
-1.40918 1.67611 7.69467 139 142 122
-1.47809 1.77503 7.15958 105 105 84
1.17793 2.4763 11.0809 32 12 8
3.08404 -2.73442 10.4518 68 75 50
-2.24769 -2.42503 11.8382 66 70 46
2.37979 -1.66808 8.77073 67 73 53
-1.62556 1.18926 10.8699 76 62 40
-1.66041 1.26354 10.6588 110 80 50
2.78416 1.43743 11.7577 71 41 32
-1.54327 1.79156 7.30039 101 101 79
0.412938 3.70131 11.51 106 56 46
-2.12106 3.17371 7.19132 93 81 60
2.83261 -2.52361 10.574 58 64 38
2.58267 -1.82966 8.57506 72 76 56
1.24697 -1.93905 13.0161 156 161 123
2.19846 -1.4242 8.54238 54 58 40
2.60449 1.43577 11.4507 50 23 16
-2.22577 3.07118 14.5863 36 8 0
-1.04567 2.92586 11.5847 20 4 2
-1.96294 2.42523 6.93545 84 88 64
1.86099 -1.62036 11.0337 78 84 69
-1.31399 1.27137 10.8893 68 39 29
2.2116 4.78011 13.8784 114 84 78
0.808251 -1.07228 15.0281 145 142 113
-1.87555 3.02862 6.76578 94 86 58
-0.299179 1.13508 10.7012 14 8 4
-1.65835 1.95387 7.95332 158 150 131
-1.67097 2.93565 6.35389 90 80 56
-1.60727 1.81618 7.35579 77 76 50
-0.347545 1.11434 10.9056 14 8 4
-1.19116 1.47524 9.22515 96 54 28
0.184507 4.58223 12.2256 112 83 81
-0.935684 0.636163 8.62525 27 30 14
1.17942 3.17599 11.3496 42 20 19
-0.867669 4.12337 12.4818 122 90 84
5.04644 -3.87971 9.46605 140 140 100
4.74881 -3.82343 9.88857 110 112 72
0.977748 -2.2746 7.00178 102 97 60
0.723044 -3.2667 13.7997 102 104 63
0.646587 -2.09552 7.81022 137 132 96
0.633721 -2.05671 7.8148 104 100 58
2.58048 -2.27819 10.5988 86 90 70
-1.8592 -2.0512 11.9957 78 81 56
0.627048 -2.36024 13.5433 92 96 56
-4.23772 -2.09263 13.8382 114 111 57
-4.06793 -2.0648 14.0157 122 118 64
1.86937 -1.65833 11.0855 71 75 60
0.923001 -1.5086 10.4848 99 104 68
1.85472 -1.60406 10.9755 82 85 70
1.57097 -1.32936 11.0959 76 80 63
-3.23248 -1.10789 13.6897 115 104 64
-3.1076 -1.0488 13.0779 112 100 58
-0.0728331 -1.02412 10.3342 90 88 54
-3.07451 -0.908257 12.8106 106 96 43
-3.04686 -0.850396 12.5161 134 121 74
-1.21919 -0.507666 9.83883 113 110 60
0.707042 -0.920844 15.6759 60 42 23
-2.51299 0.509932 12.9166 128 109 90
-4.19519 0.712844 7.73688 78 75 55
-2.43092 0.711831 12.3798 150 135 114
-1.4355 0.761235 8.3239 117 111 86
-1.03084 0.863013 8.44017 160 155 134
-1.09804 0.895468 8.09243 108 112 85
-0.173628 0.919124 10.3512 40 30 26
-0.964898 0.937215 7.79321 106 108 80
-1.14118 1.17366 7.67973 102 108 86
1.85952 1.0587 10.0321 60 54 43
-1.96431 1.55822 11.1984 132 95 75
-2.4604 1.73488 12.095 161 134 116
-2.20759 1.84665 12.1302 164 125 102
0.243734 1.41124 9.89833 104 74 60
1.29799 1.36789 9.90008 88 68 43
-1.35689 1.59785 7.70147 112 118 100
2.08265 1.42247 9.46254 135 110 96
2.32206 1.85168 11.3253 120 102 98
1.25864 1.96969 10.4032 92 72 56
2.26962 1.97507 11.247 30 6 3
-0.943957 2.36559 10.964 112 69 58
2.92247 2.58438 14.0605 94 74 64
2.91663 2.64622 14.3465 84 68 54
-1.15989 2.78965 11.5365 102 70 59
2.89185 2.71438 14.2548 48 27 15
2.73159 2.68749 13.0971 116 100 92
2.05172 2.70959 11.8745 34 8 4
0.0439882 3.06568 11.2688 120 88 78
0.109591 3.06968 11.133 116 88 80
2.09799 2.98948 11.8989 98 71 66
-0.971019 3.55496 12.147 48 11 2
-0.889463 3.51053 11.8332 110 76 68
2.60453 3.44768 13.5628 112 89 83
2.115 3.37447 11.9602 82 51 47
2.02604 3.48886 12.1791 112 85 82
-0.82372 4.11344 12.3772 112 78 68
2.51289 4.03389 13.8048 107 82 80
-0.612156 4.64765 12.6138 118 74 67
2.37277 4.65793 14.1165 100 72 65
0.0728582 4.77881 12.6657 54 17 11
2.22653 4.86321 14.2734 58 33 25
2.10323 4.77716 13.5867 65 36 32
2.00863 4.84935 13.7044 119 98 95
1.781 4.77004 13.1346 74 47 46
0.210328 5.0755 12.5931 124 79 68
-0.0691865 5.31623 13.2205 98 52 33
1.59032 5.10391 13.2348 57 32 29
1.48051 5.1179 12.9959 84 62 61
-1.7398 -5.05097 13.8344 87 92 59
3.65087 -3.17489 10.2026 77 82 53
-0.952004 -1.08451 10.8015 96 96 60
-1.3008 -1.08537 11.3228 40 42 16
-3.29422 -1.11542 13.8097 99 87 52
-1.21607 -0.968425 10.7867 66 66 39
1.15384 -1.08654 11.6217 74 79 60
-0.675938 -0.754926 10.9178 42 46 18
0.611754 -0.99232 14.4511 150 151 118
0.806908 -1.04967 15.6891 112 88 52
0.817247 -0.976738 15.6681 157 146 110
0.478683 -0.956316 16.198 94 76 59
0.724066 -0.917548 15.6214 70 52 36
-2.02152 -0.415676 13.166 144 137 88
-2.92394 0.654635 13.5298 128 109 90
-1.20036 0.949307 8.19519 95 97 68
-1.92741 1.29293 12.1852 99 76 56
1.64377 0.872308 10.6324 21 23 8
-2.46429 1.4338 13.0501 97 78 64
-1.56874 1.12765 8.01086 124 115 92
-1.12632 1.30915 10.5259 50 30 12
-1.75579 1.41831 10.744 118 76 50
-1.1632 1.17598 7.71507 85 94 70
-1.88614 1.57764 11.226 79 43 22
-2.15446 1.73228 11.8142 152 116 92
-0.0353465 1.46749 10.3902 52 18 8
1.96407 1.25698 9.77283 120 100 80
-1.27496 1.7011 10.7876 70 24 4
-1.27196 1.49171 7.33214 99 100 78
-1.34274 1.5413 7.37815 94 94 76
-1.58251 2.27157 11.986 36 7 1
2.29491 1.86195 11.4385 120 96 93
2.32613 1.92119 11.4848 24 8 6
2.95493 2.5347 14.2922 126 114 102
-1.04838 2.72326 11.2719 105 68 58
-1.93612 3.13607 12.774 154 125 108
2.21223 2.53238 11.5094 95 73 69
2.7601 2.66241 12.8941 104 88 80
-0.65245 2.88033 11.2081 38 6 0
2.14871 2.63205 11.7092 107 86 82
2.35746 2.87781 12.1145 100 70 64
-2.00296 3.73378 13.6036 143 116 100
2.82702 3.22617 14.4203 116 102 86
0.241719 2.9622 10.7676 118 86 75
2.07639 3.0055 11.9805 90 60 55
-0.925858 3.41678 11.7997 114 75 64
2.07075 3.41089 12.1282 80 48 44
-0.889635 4.1153 12.5034 106 62 52
0.24081 4.46455 12.1546 60 18 8
0.199538 4.56057 12.1739 109 78 70
1.0447 4.63558 12.3562 110 79 77
1.44097 5.27299 13.8064 57 32 27
-0.0660519 5.35626 12.9666 119 69 51
1.48113 5.0979 12.9549 120 98 97
1.12857 5.21825 12.9262 74 37 30
0.953363 -2.29094 7.03935 132 128 84
0.870063 -3.20197 13.3277 128 130 86
3.08883 -2.74107 10.4472 58 66 42
0.721346 -2.07579 7.62275 152 148 102
2.31974 -2.08906 10.8178 73 78 56
-4.35137 -2.12121 14.0234 135 130 76
-1.14178 -1.06325 11.0109 43 44 16
-3.22257 -1.11101 13.6544 104 92 56
0.842435 -0.922006 15.4644 160 150 112
-1.21654 -0.51046 9.84117 113 110 60
0.813853 -0.910051 15.38 64 48 27
-0.843878 0.69503 8.55406 124 86 60
-1.2684 0.79023 9.00408 116 104 76
0.0722631 0.915838 10.9595 75 54 39
-1.03006 0.924627 7.91536 100 101 72
-1.22616 1.07038 9.59444 96 75 48
-1.9653 1.67302 11.457 156 119 93
-1.78654 1.75734 11.5 120 75 48
-1.33436 1.72175 10.9107 70 24 4
-1.33397 1.49934 7.42897 84 86 64
2.39798 1.52152 10.696 126 92 85
-1.52881 1.68837 7.88207 108 111 88
-2.12165 2.30542 12.3144 130 102 82
-0.862105 1.99857 10.4127 74 46 39
-1.13003 1.67618 6.65249 93 96 74
1.21924 2.0096 10.5534 91 70 56
1.09905 2.09846 10.7014 25 4 0
-0.987759 3.01564 11.8944 32 6 2
0.222861 2.67563 10.6942 49 22 17
2.12019 2.64665 11.8499 104 84 79
2.1196 2.64852 11.5731 36 12 6
0.246177 2.95972 10.7565 118 86 75
-0.0644781 3.13114 11.3775 52 17 7
3.10327 -2.73734 10.4203 60 68 46
0.763765 -2.01183 7.5263 114 111 68
-1.32686 -1.60176 12.0157 84 84 54
-2.8259 -1.05828 12.9224 132 122 77
0.62549 -0.957463 15.2698 84 66 42
0.948548 -0.922919 15.9679 161 144 102
-1.23229 -0.550726 11.5586 34 32 10
-2.653 -0.435538 14.456 144 135 86
-2.50045 -0.253926 11.247 140 132 78
-2.71444 0.514438 13.3285 113 94 72
-2.41002 0.675164 12.3927 142 124 102
-1.25188 0.973145 8.26825 98 98 69
-1.97372 1.21652 11.6266 38 20 4
-2.16577 1.2642 12.5663 129 108 96
-2.31453 1.38935 12.5336 27 12 2
-0.264368 1.05541 10.4346 15 8 4
-1.41172 1.10519 7.74861 118 110 88
-2.08216 1.72046 11.7243 168 132 102
-2.23087 1.78475 11.7582 116 92 73
-2.02027 1.77651 11.7446 168 128 104
0.212801 1.3798 9.73034 54 18 10
-1.61071 1.46227 7.57235 130 122 102
-1.3819 1.52503 7.47873 93 93 72
2.36011 1.53426 10.8629 128 94 86
1.53051 1.58195 9.37056 143 99 78
-1.78882 1.78575 7.35607 134 124 104
-2.22407 2.79885 12.8761 146 124 105
2.14397 2.29996 11.5446 27 6 2
-2.03355 3.18261 12.9926 154 125 108
-0.568347 2.7543 11.3341 40 8 4
0.180229 2.61104 10.6227 87 56 49
1.20903 2.67871 10.8577 112 88 84
-1.10851 3.35553 12.2281 40 5 0
-1.77627 3.62973 13.1339 143 116 100
2.76671 3.33547 14.2917 45 18 10
-1.15627 3.57156 12.3651 120 87 78
-1.47518 2.88236 6.0071 142 128 112
0.203901 4.67513 12.3923 52 15 8
1.57772 5.09092 13.2288 58 32 26
0.317437 5.29384 12.9215 104 56 43
0.8509 5.38659 13.0168 79 39 26
0.628079 5.45159 12.9072 102 64 50
5.20095 -4.11523 9.60624 132 134 86
0.69912 -2.19508 7.57514 109 105 60
0.560849 -2.07688 7.987 104 100 58
-1.98942 -1.34066 12.3556 74 74 46
-3.00781 -1.06066 13.0573 82 67 36
-3.14708 -1.09448 13.5181 106 94 56
0.40545 -0.944429 11.9247 128 133 93
-2.95011 -0.538999 11.9513 106 86 42
0.625502 -0.931765 15.1249 79 58 34
0.764573 -0.947337 15.8665 158 147 112
-0.467977 -0.495731 9.80912 68 70 29
-2.87408 -0.433516 14.885 146 138 82
-1.48862 -0.260417 9.84024 142 138 84
-2.39884 0.475063 12.7318 96 76 54
-2.60744 0.688184 12.7547 122 105 82
-0.972424 0.541288 8.44243 82 83 52
-3.09366 0.998146 12.5762 117 83 52
-1.46312 0.995975 9.02498 106 109 86
-1.51231 1.12092 7.88941 132 122 101
-1.78642 1.41392 11.9033 69 48 34
-1.18349 1.1857 7.70952 82 88 66
-1.82939 1.46383 10.9037 102 59 36
-1.33215 1.27297 7.8856 96 96 71
1.84454 1.27425 10.183 110 90 72
-0.975317 1.9921 10.8058 132 84 70
-1.82586 1.78848 7.41022 134 126 107
2.17268 2.24303 11.6846 73 44 41
2.31181 2.17383 10.8178 40 19 15
-0.958012 2.77117 11.3117 32 6 1
2.88044 2.7158 14.1046 32 16 10
0.20567 2.57904 10.5445 86 52 44
2.70027 2.76406 13.0734 60 44 42
2.81555 2.74041 13.016 34 18 11
-0.882216 3.22177 11.6672 48 8 2
0.0969745 3.03484 11.1139 110 76 65
2.73464 3.34106 14.3008 55 28 21
-1.19831 3.58242 12.4262 112 76 68
-2.29966 3.00433 6.39172 106 98 78
-1.55278 2.9039 6.17679 136 124 106
2.24778 4.838 14.2226 74 47 40
2.15371 4.83972 13.9906 112 88 80
1.03275 4.72935 12.4403 102 76 72
-0.0684167 5.40074 13.016 98 48 29
0.410158 5.22005 12.6614 126 78 66
0.00777615 5.47254 13.0453 108 60 42
0.539697 5.5281 13.1521 114 74 60
-4.12782 -8.11375 18.802 94 101 55
1.53405 -2.08323 12.0944 146 151 110
-1.97323 -0.429997 12.8774 145 138 80
-1.42545 -0.260171 9.72074 146 141 86
-2.38571 0.45448 12.7194 73 54 31
-2.58556 0.658763 12.7411 70 54 30
0.12212 0.914767 10.6859 84 61 44
-1.01346 0.931179 7.86062 90 91 62
-2.36483 1.3012 12.9254 78 60 48
-1.51915 1.11981 7.8933 132 122 101
-2.0275 1.63899 11.4321 67 36 18
-1.75977 1.65584 11.153 153 114 86
1.23263 1.40893 9.98568 117 76 48
2.28403 1.46154 10.625 74 35 23
1.55815 1.54928 9.171 158 110 86
-1.63012 2.23825 11.8907 60 30 23
-1.1458 1.69143 6.65217 100 100 80
2.85669 2.73188 14.1901 33 15 10
-0.434935 2.70317 10.991 38 8 2
2.85164 3.20226 14.205 84 61 44
-0.702688 3.25581 11.6626 40 9 0
2.71591 3.3938 14.4203 38 11 4
-1.11299 3.557 12.2653 116 86 76
-2.06858 4.07115 13.8735 128 98 80
2.71708 2.88951 9.45795 45 22 20
1.76538 4.21198 12.9332 82 52 49
2.0785 5.04749 14.3881 80 54 44
-1.19332 5.52566 14.1254 93 63 58
0.12588 5.20625 12.7553 140 96 80
-3.73549 -1.98088 12.8383 130 128 74
-5.61282 -1.78508 14.7913 90 67 21
3.51607 -1.35261 12.9447 140 153 116
-3.48826 -0.812141 13.1561 102 83 44
0.642789 -1.00858 14.3015 145 146 109
-2.74667 -0.54701 11.611 114 98 49
0.0291183 0.383424 12.2479 76 71 56
-2.17698 0.626191 11.9524 92 75 52
-1.97325 1.2567 12.1246 72 58 44
-0.320244 1.01988 10.5763 14 7 2
0.322753 2.20218 9.97044 64 33 26
2.73788 2.38157 12.3226 50 25 22
2.97129 2.5895 13.3747 46 22 16
2.87225 2.99698 14.5301 90 58 37
1.1305 2.72923 11.0013 61 32 26
-0.855712 3.23457 11.6529 40 9 2
2.78331 3.23007 14.496 84 52 32
-1.63926 3.57399 12.7059 146 130 114
-1.50899 2.81746 6.47606 62 60 34
-1.29732 2.74553 6.08982 80 74 49
-1.96729 3.04957 6.74567 156 144 127
0.651567 4.47102 13.2259 86 52 46
0.0285992 4.58761 12.0828 52 12 5
1.99188 4.52761 12.0347 100 76 74
1.06292 -4.07769 13.5727 121 127 85
0.297703 -1.44125 13.6038 156 160 109
0.477984 -0.989597 11.7063 120 127 86
0.0425562 1.15413 10.3462 18 10 6
1.09448 1.43703 10.3468 120 81 55
-0.94043 1.68318 10.1658 46 15 8
2.07649 1.35444 9.45911 128 104 87
-1.95129 2.42685 12.0646 117 91 70
2.87847 2.64888 13.811 42 19 12
2.81538 3.01705 14.8722 89 59 39
-1.69941 3.54131 12.8185 148 130 114
2.77302 3.29615 14.8486 119 105 90
-1.18302 2.61991 6.19444 60 57 32
-1.32089 2.72865 6.19931 90 83 61
-1.5139 2.83858 6.19004 161 148 137
1.90734 4.21613 13.1414 59 27 24
-0.67063 5.06689 12.8526 52 20 14
1.66792 4.85687 13.2335 78 46 44
-0.0249792 5.2839 13.0566 110 60 40
1.27343 -2.2981 8.41432 105 112 72
2.83077 -2.51977 10.5688 68 72 48
1.23191 -2.12471 13.1164 145 148 114
0.974422 -1.68853 10.2798 111 116 78
0.781981 -1.0396 15.8159 96 72 36
-0.992127 0.912957 8.25375 122 118 94
-1.39411 1.63401 7.75852 26 32 12
1.31853 1.7396 10.0183 56 24 10
2.30541 2.17769 11.0117 40 16 12
0.0865347 2.66047 10.861 116 88 81
1.18884 2.75273 10.9562 112 95 88
2.8846 3.17164 14.0628 129 116 100
1.16236 3.41555 11.3689 122 103 97
2.58563 4.0119 15.0656 110 95 81
1.09624 4.17048 11.9559 111 87 84
2.1984 4.8178 14.2845 102 76 69
1.67244 4.82289 13.0815 58 26 24
1.37386 5.26755 13.5915 66 42 40
1.08996 5.26603 13.0453 73 37 31
-3.12612 -7.38695 16.652 88 93 46
0.847121 -3.21025 13.4189 106 108 66
2.07222 -1.89896 11.0681 63 68 49
-1.34581 1.56682 7.73382 82 92 68
-1.40188 2.40584 11.3716 50 16 6
1.25032 2.00192 10.4469 108 84 77
-0.919335 2.34465 10.8853 93 48 34
1.11581 2.41181 10.9981 98 68 62
1.11643 2.77955 11.1538 108 91 85
-1.68975 2.97251 6.27884 144 131 114
0.185697 4.67691 12.3756 58 25 18
-0.546126 -2.14662 10.7585 138 136 92
1.01304 -1.84053 8.19047 86 88 78
0.905821 -1.77354 10.4201 145 151 111
-0.450423 -1.4215 10.9688 108 103 70
1.50415 -1.37427 11.3662 61 64 46
-1.75538 1.18701 11.7687 124 100 88
-1.54201 1.23789 11.2164 88 70 56
1.72921 1.45577 10.7042 112 93 78
-0.961938 2.00317 10.4744 31 8 4
