ply
format ascii 1.0
element vertex 1282
property float x
property float y
property float z
property uchar red
property uchar green
property uchar blue
end_header
-0.395755 -0.239775 1.28078 134 38 27
-0.399883 -0.23873 1.28466 164 138 120
0.341908 -0.156609 1.46859 28 16 7
0.418126 -0.151931 1.40801 116 74 57
0.394812 -0.154815 1.38616 150 126 118
-0.324731 -0.217562 1.29254 124 116 118
0.109895 -0.169268 1.28902 29 11 4
0.0516018 -0.154827 1.33775 122 95 90
0.0298623 -0.147263 1.38259 93 70 64
0.211148 -0.13472 1.36594 78 54 46
-0.346889 -0.19739 1.27946 37 34 44
-0.342269 -0.189646 1.28696 20 15 26
0.0776114 -0.144253 1.32008 181 161 154
0.129984 -0.138702 1.31651 187 170 162
0.166853 -0.131975 1.33597 146 110 108
0.137889 -0.140623 1.30241 72 60 55
-0.312922 -0.174943 1.31876 48 27 36
0.0900988 -0.126603 1.34698 78 66 64
0.144388 -0.127765 1.31605 38 24 20
0.144666 -0.121836 1.32711 38 20 18
-0.300235 -0.162155 1.33927 127 44 40
0.147581 -0.125141 1.31327 168 154 153
0.0866612 -0.129048 1.31525 39 20 14
-0.337544 -0.166887 1.31024 31 20 32
-0.360853 -0.16315 1.29468 50 32 40
0.0650979 -0.0886975 1.40076 67 40 30
0.0674046 -0.0960729 1.34425 182 134 130
-0.360993 -0.141013 1.33808 70 2 2
-0.385495 -0.145958 1.32336 162 89 82
-0.352242 -0.144718 1.30925 124 19 16
-0.355783 -0.144487 1.3067 144 82 48
0.0755886 -0.0818217 1.36997 136 110 104
-0.359772 -0.140415 1.31539 120 26 16
0.0943317 -0.0864928 1.32253 64 34 32
-0.351413 -0.113322 1.39827 134 92 84
-0.370597 -0.140428 1.29719 138 34 21
0.0611002 -0.0771369 1.35302 95 62 56
-0.31786 -0.112361 1.36269 152 77 42
-0.380729 -0.114882 1.34258 142 62 34
0.36795 -0.582891 1.43948 95 70 30
0.343565 -0.495081 1.30574 100 12 8
0.332313 -0.491424 1.30897 140 98 76
0.346966 -0.49685 1.43038 164 156 114
0.347728 -0.466308 1.29888 103 62 38
0.358709 -0.456343 1.28158 92 44 22
0.338616 -0.473889 1.40895 88 71 39
-0.0290741 -0.479425 1.47053 178 116 96
0.336477 -0.458702 1.33854 72 56 48
-0.21045 -0.467395 1.4447 56 30 8
-0.034635 -0.473847 1.47079 104 48 30
-0.209509 -0.455307 1.43659 88 48 32
0.333824 -0.43906 1.31854 138 111 94
-0.0443842 -0.458364 1.4854 94 25 10
-0.24325 -0.431558 1.41879 140 89 75
0.395993 -0.420778 1.47289 120 95 54
-0.04546 -0.425156 1.50383 77 30 8
0.0197387 -0.39964 1.5021 82 35 18
0.421638 -0.379267 1.38239 102 86 70
0.429443 -0.375519 1.34272 132 47 34
0.425615 -0.365611 1.339 145 48 36
0.420565 -0.3682 1.40171 73 58 38
0.355174 -0.365302 1.41746 145 120 104
0.333629 -0.360057 1.39703 178 146 133
0.405922 -0.346946 1.31487 124 42 24
-0.129193 -0.358228 1.41652 56 16 6
0.382933 -0.347006 1.43614 146 104 87
-0.269423 -0.357974 1.44733 108 62 50
0.0484305 -0.351517 1.48354 90 64 42
0.420407 -0.331996 1.35882 72 45 32
0.408893 -0.334845 1.46489 19 12 6
0.363278 -0.329934 1.43864 50 20 12
-0.00493007 -0.325608 1.48386 104 62 46
-0.290492 -0.331499 1.48317 160 104 80
-0.363852 -0.327255 1.25981 158 140 125
-0.29253 -0.320481 1.48937 94 56 33
-0.134205 -0.313776 1.38935 82 36 20
-0.0788306 -0.312175 1.40774 80 28 16
-0.138159 -0.308794 1.38786 170 116 98
0.361543 -0.288172 1.4871 98 75 60
0.364289 -0.28692 1.45147 152 120 101
0.432498 -0.284644 1.35174 175 148 133
-0.124308 -0.304748 1.38724 74 28 13
-0.0873599 -0.303193 1.40753 92 40 26
-0.0910901 -0.298841 1.41835 112 58 42
-0.317914 -0.309148 1.26595 116 45 32
0.43804 -0.264202 1.37798 146 118 102
0.39228 -0.261841 1.38192 74 40 24
-0.132177 -0.282825 1.38914 126 84 70
0.381163 -0.256555 1.47368 94 56 37
-0.36175 -0.296356 1.2421 182 70 74
0.435789 -0.250524 1.37067 128 105 92
-0.379526 -0.293177 1.24409 146 46 38
-0.328506 -0.288655 1.25026 124 32 35
0.392763 -0.245462 1.39918 12 6 3
0.432684 -0.243812 1.38322 32 12 1
-0.377116 -0.288612 1.24669 184 154 146
-0.272729 -0.274085 1.3407 106 26 8
-0.372855 -0.279365 1.24233 81 42 34
-0.318434 -0.269278 1.31303 158 131 107
-0.265896 -0.243913 1.34539 139 54 32
0.413848 -0.193013 1.36752 76 32 15
-0.397598 -0.248237 1.28729 170 132 118
0.387216 -0.17287 1.39943 120 86 72
-0.398022 -0.238789 1.27584 164 138 120
0.0707517 -0.189945 1.31487 76 14 15
0.202343 -0.15592 1.34546 98 80 68
-0.26554 -0.159737 1.50985 172 122 100
0.212585 -0.143643 1.36062 168 151 145
0.13692 -0.150897 1.30636 148 94 89
0.192173 -0.137899 1.35034 150 128 117
0.0350281 -0.140241 1.39382 150 127 117
0.0945478 -0.150575 1.30671 144 122 118
-0.400987 -0.198188 1.27289 125 80 35
-0.342537 -0.191378 1.28145 34 27 40
-0.387691 -0.19443 1.26965 136 47 28
0.150277 -0.140351 1.30809 144 118 117
0.0773325 -0.136762 1.31964 95 84 81
0.13188 -0.134627 1.29536 38 24 17
0.094527 -0.133011 1.31275 134 116 113
0.121849 -0.125823 1.32694 136 49 48
0.148543 -0.119664 1.33669 42 25 22
-0.332138 -0.172371 1.30157 28 16 30
-0.337577 -0.167401 1.30982 31 20 32
-0.310931 -0.158414 1.32363 125 26 23
-0.360973 -0.162547 1.29534 43 26 34
0.0580159 -0.100581 1.36915 56 18 12
-0.356196 -0.149724 1.30599 71 4 2
-0.340943 -0.146977 1.30782 161 115 106
0.0910191 -0.0834482 1.38018 134 82 80
-0.384358 -0.147228 1.3167 170 106 98
0.0937995 -0.0835439 1.37046 62 36 40
-0.348604 -0.120434 1.37252 140 100 94
-0.371065 -0.140499 1.29803 139 34 20
0.345896 -0.540612 1.43273 132 102 51
0.3469 -0.477517 1.29236 135 88 66
0.324979 -0.482697 1.38228 100 88 67
0.330082 -0.473314 1.35716 78 67 51
-0.0382622 -0.471298 1.45394 90 34 18
0.352102 -0.446867 1.30979 99 28 24
0.36271 -0.442327 1.28317 108 10 5
-0.0641148 -0.481189 1.53827 121 113 74
-0.234814 -0.450796 1.41811 56 24 12
-0.213751 -0.448664 1.43066 80 36 25
-0.0554063 -0.469927 1.5606 60 38 17
-0.274481 -0.445878 1.42472 52 22 11
-0.265022 -0.446615 1.43176 168 117 91
-0.0126561 -0.42684 1.48828 142 92 72
-0.237729 -0.419222 1.43108 184 121 101
-0.269032 -0.415353 1.41468 122 82 64
-0.0280684 -0.42456 1.50648 160 104 78
0.0171779 -0.418498 1.4997 52 15 9
0.391731 -0.398211 1.43378 81 28 14
0.397659 -0.398278 1.43415 76 42 18
-0.241684 -0.403326 1.45971 101 48 36
0.0202022 -0.403794 1.49224 136 90 72
0.0174431 -0.39806 1.4923 79 34 18
0.430516 -0.379256 1.39332 100 84 69
0.355977 -0.378481 1.40571 162 126 106
0.428552 -0.366126 1.35724 90 37 28
0.431594 -0.3689 1.41665 78 61 42
0.0219747 -0.361794 1.47961 129 82 65
0.372161 -0.336812 1.39913 54 68 42
0.342555 -0.336145 1.41858 126 92 71
-0.356921 -0.343984 1.23492 90 87 117
-0.304203 -0.351942 1.47445 105 78 54
0.0354072 -0.340541 1.49405 140 126 105
-0.280993 -0.318414 1.48856 44 14 8
0.429944 -0.291122 1.36717 117 71 50
-0.0866103 -0.308517 1.4052 178 124 110
-0.0897926 -0.302298 1.40172 84 31 18
-0.317695 -0.308622 1.26799 116 43 31
-0.277343 -0.302713 1.47808 124 86 65
-0.38663 -0.305536 1.27156 142 75 60
0.425491 -0.267632 1.36026 131 106 90
0.412451 -0.249678 1.40622 100 78 67
0.429984 -0.244814 1.45172 50 36 30
0.449436 -0.246233 1.38856 148 123 111
0.381287 -0.2476 1.38221 10 8 6
0.438746 -0.241902 1.39007 29 10 0
-0.374459 -0.288993 1.23527 184 154 148
0.446393 -0.239221 1.38549 25 20 14
-0.379777 -0.279646 1.26281 182 148 142
0.352236 -0.221298 1.56784 114 98 72
-0.329519 -0.276657 1.25346 161 132 132
-0.26519 -0.246144 1.3273 134 42 26
0.413988 -0.185787 1.38042 158 113 100
0.402316 -0.182878 1.40186 156 129 119
0.378943 -0.178997 1.40443 140 110 97
-0.325877 -0.198157 1.29809 26 18 34
0.0904839 -0.164165 1.28989 92 54 42
0.203883 -0.138455 1.35799 78 57 48
0.135704 -0.151279 1.3056 136 84 77
0.0326355 -0.142044 1.38558 150 127 117
0.0905578 -0.14758 1.31831 142 129 126
0.0251147 -0.138666 1.38452 118 98 91
0.0829889 -0.144881 1.31339 118 102 96
0.141914 -0.137109 1.31475 85 72 66
0.148789 -0.140159 1.30555 139 119 118
0.07329 -0.138321 1.31066 90 80 76
0.143852 -0.126416 1.3064 168 154 152
0.0614509 -0.090351 1.39506 108 83 72
0.0699724 -0.0922105 1.35375 130 103 97
0.0622907 -0.0800224 1.39803 112 82 75
-0.356111 -0.144089 1.30924 144 80 49
0.11094 -0.0724117 1.36403 62 30 28
0.326257 -0.515099 1.39508 152 116 78
0.00778827 -0.502302 1.46952 44 28 16
0.328587 -0.484632 1.38624 86 78 58
0.340666 -0.454649 1.31524 112 84 74
-0.222592 -0.466905 1.43939 106 74 54
-0.0353833 -0.472887 1.46271 82 28 13
0.00187402 -0.471157 1.45357 116 78 61
-0.053687 -0.473518 1.48621 60 12 4
0.346294 -0.441952 1.33472 138 112 100
0.352157 -0.439135 1.33149 90 54 30
0.338562 -0.434653 1.30608 130 90 72
-0.267188 -0.446942 1.42865 166 116 86
-0.274722 -0.444804 1.43094 49 22 10
0.00975208 -0.459988 1.52585 152 98 82
0.393624 -0.434943 1.43694 116 72 42
0.0336586 -0.441181 1.50579 38 14 9
0.402778 -0.422821 1.43631 118 65 33
0.0127154 -0.427039 1.47786 120 72 58
-0.0195541 -0.424226 1.4774 158 106 87
0.389728 -0.409861 1.46656 162 156 110
0.0208315 -0.404722 1.48564 127 82 64
0.455477 -0.372348 1.42497 66 58 44
0.441278 -0.370054 1.43001 90 70 52
-0.366458 -0.339379 1.24508 130 124 117
0.0316311 -0.33053 1.51479 88 51 36
-0.14875 -0.329932 1.37717 212 156 120
-0.135476 -0.327598 1.40276 152 98 68
-0.0652095 -0.321337 1.47341 118 72 52
-0.0765403 -0.313123 1.43257 84 33 20
-0.135185 -0.312482 1.39128 75 28 14
-0.318036 -0.30922 1.25995 117 31 22
0.384738 -0.258291 1.47562 90 54 36
-0.362012 -0.297294 1.24059 181 69 72
-0.381961 -0.293122 1.25559 146 46 39
0.332797 -0.242056 1.48578 142 118 103
-0.368673 -0.280266 1.23851 186 144 140
0.356278 -0.219815 1.57692 115 100 74
-0.380822 -0.276152 1.25565 140 61 46
-0.379746 -0.272097 1.25842 144 37 34
0.158043 -0.217528 1.35874 124 54 39
-0.265173 -0.243084 1.3487 130 30 18
0.0636337 -0.206522 1.30593 58 10 6
-0.328628 -0.215293 1.29455 33 28 40
-0.324007 -0.213381 1.29324 28 22 34
0.13887 -0.149136 1.31294 140 90 83
0.14372 -0.148895 1.31167 142 80 80
-0.271877 -0.138251 1.54381 174 126 94
0.0718646 -0.148136 1.31131 152 132 122
-0.385272 -0.196536 1.26136 136 39 25
0.130545 -0.144091 1.29307 99 86 82
0.132065 -0.138783 1.30632 94 78 71
0.126383 -0.136965 1.3061 102 86 78
0.0928657 -0.135456 1.30834 135 119 116
0.131849 -0.13249 1.30138 42 25 20
0.0688287 -0.0927165 1.35318 110 78 72
0.0788424 -0.0921743 1.35073 136 98 96
0.0863722 -0.0917546 1.34893 74 24 24
0.0900246 -0.0765696 1.37883 90 70 68
0.067069 -0.0742561 1.35696 162 134 129
0.409764 -0.565204 1.42041 149 136 96
0.358325 -0.546643 1.45418 164 155 101
-0.000748548 -0.502575 1.49623 78 45 28
0.321279 -0.485803 1.37585 80 74 54
0.00817498 -0.490851 1.49237 90 56 40
0.0123997 -0.478783 1.48318 68 35 22
-0.247178 -0.4503 1.42456 34 14 8
-0.0526867 -0.452798 1.45063 101 34 16
0.040951 -0.449929 1.49767 75 64 34
0.0310269 -0.441863 1.50114 36 18 12
0.0441868 -0.4343 1.48644 86 58 31
0.366002 -0.418531 1.42749 118 84 42
0.0137134 -0.413878 1.4868 58 20 13
0.431331 -0.370016 1.41736 94 74 56
-0.0964407 -0.370598 1.4798 90 44 26
0.0250549 -0.348349 1.49344 28 8 4
0.0368428 -0.331471 1.53696 90 50 34
-0.142626 -0.306371 1.37743 189 129 106
-0.28315 -0.306555 1.49443 122 92 71
-0.321773 -0.295528 1.25537 125 18 16
0.362274 -0.251848 1.48046 128 96 78
-0.318104 -0.271579 1.30118 136 86 63
-0.316969 -0.263461 1.30962 74 8 4
-0.311943 -0.262896 1.31281 104 48 18
0.347007 -0.211345 1.45448 132 62 40
0.387509 -0.176841 1.40059 146 110 98
-0.338054 -0.210327 1.29544 62 54 64
0.0273966 -0.176061 1.2866 117 71 64
0.407583 -0.128137 1.38749 146 116 112
0.0485406 -0.160923 1.33279 114 86 80
0.204135 -0.140116 1.35775 84 64 54
0.189181 -0.136558 1.3509 142 66 60
0.0852455 -0.142343 1.29135 142 126 123
-0.332251 -0.175848 1.28004 26 16 31
0.117769 -0.126134 1.31295 144 88 82
-0.31111 -0.147481 1.34368 156 122 98
0.158267 -0.100779 1.32922 152 32 26
0.343491 -0.453717 1.31654 100 72 60
-0.232972 -0.45285 1.42438 71 34 17
0.402167 -0.429515 1.26148 116 92 85
0.358583 -0.434032 1.30023 87 51 42
-0.280053 -0.448734 1.42722 124 82 59
0.348718 -0.432409 1.31581 142 114 98
0.403581 -0.422141 1.26425 64 45 40
0.49112 -0.415277 1.37239 64 31 16
-0.0419641 -0.435824 1.51941 70 27 5
0.537398 -0.409405 1.40787 73 56 47
0.557307 -0.409836 1.43284 121 94 82
0.537363 -0.403463 1.41063 30 16 12
0.052086 -0.359154 1.48631 88 72 46
0.455159 -0.331724 1.34435 98 58 42
0.365124 -0.328724 1.43506 51 16 6
-0.143734 -0.334162 1.39252 223 168 130
0.458358 -0.313176 1.35145 34 18 16
-0.342449 -0.331972 1.24971 84 76 86
0.475609 -0.298742 1.35378 101 65 51
0.460308 -0.279745 1.36549 156 114 94
-0.321455 -0.291079 1.24976 142 81 79
0.466812 -0.227334 1.38602 121 100 83
0.42174 -0.123376 1.39248 50 30 24
0.0877639 -0.142582 1.31974 92 77 70
-0.308372 -0.176056 1.32141 50 21 28
0.0849491 -0.138299 1.3066 77 62 55
-0.314077 -0.155285 1.33735 120 38 14
0.0664159 -0.0724005 1.36888 86 54 46
0.43454 -0.562719 1.3185 131 80 45
0.400302 -0.580242 1.45392 122 110 72
0.397668 -0.426355 1.26667 112 86 76
-0.281149 -0.442943 1.42657 122 78 52
0.0447765 -0.448104 1.5124 130 115 84
-0.199397 -0.430236 1.43608 98 36 17
-0.0440627 -0.433252 1.52177 97 70 34
-0.0424984 -0.429073 1.52311 90 44 20
-0.0483419 -0.424544 1.51564 162 114 80
0.409363 -0.396685 1.44912 136 103 76
0.455647 -0.280078 1.3606 158 117 94
-0.322612 -0.290642 1.25634 148 89 90
-0.373946 -0.275 1.25205 164 96 90
0.0688856 -0.196256 1.30909 95 28 22
-0.335073 -0.208549 1.28771 58 52 62
0.103434 -0.143205 1.31932 152 112 110
-0.337622 -0.167342 1.30546 30 20 31
0.338599 -0.47753 1.28552 154 108 81
-0.278653 -0.4438 1.43533 121 80 58
-0.0103811 -0.426053 1.49432 150 101 79
0.427968 -0.371655 1.40038 91 80 63
-0.356126 -0.343838 1.23304 88 87 112
0.350684 -0.256927 1.49838 58 32 12
-0.320674 -0.287852 1.25515 164 135 132
0.404896 -0.244248 1.40452 20 14 11
0.418832 -0.196352 1.35144 156 112 93
-0.334513 -0.21311 1.28487 122 116 122
-0.401805 -0.201622 1.2587 157 120 84
0.132444 -0.129909 1.30705 62 44 36
-0.298871 -0.164022 1.32882 122 44 38
-0.337825 -0.167648 1.30596 44 31 42
-0.315013 -0.160721 1.32748 82 2 5
-0.317589 -0.155121 1.32502 120 27 9
0.342455 -0.455804 1.31657 116 86 75
-0.2174 -0.475252 1.46259 38 22 8
-0.211578 -0.462578 1.44352 150 106 84
-0.210421 -0.435776 1.42611 116 63 45
0.0177032 -0.410923 1.49868 66 22 12
-0.0786212 -0.398291 1.58719 105 62 32
-0.294362 -0.371272 1.48278 59 23 10
0.352116 -0.260171 1.51088 140 88 62
-0.321435 -0.290774 1.25019 148 89 90
0.168065 -0.215542 1.37235 128 68 47
-0.403706 -0.200493 1.2645 164 132 102
0.101821 -0.144127 1.31579 158 124 121
0.153975 -0.140484 1.31192 152 106 103
0.114003 -0.131302 1.30791 149 90 83
0.0700052 -0.0858904 1.36213 110 86 77
-0.352321 -0.101698 1.34171 138 70 30
-0.000737572 -0.512917 1.47445 46 24 12
-0.00802073 -0.497112 1.47061 110 70 45
0.332092 -0.46883 1.38083 108 76 44
0.332891 -0.464029 1.37923 126 96 68
0.349041 -0.446205 1.30685 122 51 45
-0.268839 -0.461955 1.4366 131 86 58
0.0161929 -0.426911 1.48724 114 66 54
0.345649 -0.363075 1.43662 102 78 50
-0.364857 -0.340078 1.23884 84 81 86
-0.338757 -0.339137 1.24792 40 38 56
-0.146196 -0.329109 1.38734 224 174 133
-0.076893 -0.318898 1.42007 170 117 102
-0.287419 -0.316402 1.48804 164 145 126
0.421959 -0.253751 1.41364 38 14 4
-0.320829 -0.285577 1.25136 163 146 142
-0.322234 -0.281406 1.25073 50 23 20
-0.369699 -0.277265 1.24313 161 114 104
-0.312125 -0.267446 1.27491 120 78 60
0.446144 -0.17388 1.37546 142 102 84
-0.396797 -0.240589 1.28359 136 55 38
0.204789 -0.153937 1.35703 81 60 44
-0.261624 -0.14462 1.50222 207 153 127
-0.313857 -0.117749 1.37683 140 80 68
-0.372961 -0.0895624 1.35325 181 110 50
-0.229762 -0.426306 1.4203 80 36 24
-0.338587 -0.338596 1.2465 42 39 56
-0.340277 -0.329033 1.24649 154 142 126
-0.379999 -0.293185 1.24655 145 48 40
-0.321989 -0.290196 1.24977 168 126 126
-0.272122 -0.272858 1.34156 114 24 6
-0.328425 -0.280588 1.234 160 118 119
-0.369725 -0.279035 1.24363 176 133 122
-0.311619 -0.267681 1.27245 120 78 60
-0.392099 -0.240031 1.27402 141 66 32
-0.336225 -0.234159 1.27435 67 0 0
0.0700555 -0.189952 1.313 66 10 7
-0.328007 -0.215478 1.29365 29 18 28
-0.339038 -0.199152 1.29001 101 95 106
0.0988299 -0.148396 1.31745 152 126 122
-0.353558 -0.0998964 1.34352 141 76 26
0.398116 -0.580333 1.45336 146 135 96
0.0463171 -0.35199 1.4787 96 66 44
-0.288032 -0.315841 1.48964 161 144 126
-0.0546028 -0.303732 1.44577 128 78 58
-0.127437 -0.298551 1.44938 170 118 102
-0.266777 -0.300681 1.41808 126 92 71
-0.322111 -0.289059 1.24339 162 144 145
-0.268439 -0.279277 1.35069 164 128 110
-0.273028 -0.272498 1.34755 112 25 6
-0.346847 -0.198608 1.27609 56 52 59
0.089785 -0.153778 1.31007 152 110 106
-0.370121 -0.142765 1.29183 138 30 23
-0.355285 -0.0982665 1.34468 144 80 30
-0.267306 -0.458854 1.42172 137 91 62
-0.0047236 -0.46358 1.47454 154 100 80
-0.279672 -0.432394 1.42489 116 73 49
0.0523027 -0.424162 1.49038 138 133 87
-0.297468 -0.396209 1.47286 120 115 73
-0.237628 -0.390993 1.46448 146 94 70
0.052093 -0.364005 1.48577 124 100 80
0.0477112 -0.353293 1.48511 100 68 46
-0.300731 -0.330953 1.49107 141 121 98
-0.361775 -0.326701 1.24454 160 144 128
-0.273306 -0.317802 1.47616 92 50 32
0.416423 -0.255342 1.41546 38 22 16
-0.261701 -0.279359 1.40057 160 112 92
-0.271451 -0.274305 1.34058 114 24 5
-0.161666 -0.145035 1.5099 144 94 74
-0.328766 -0.107294 1.36369 142 77 28
-0.297289 -0.344226 1.47968 64 30 8
0.0559973 -0.391014 1.49234 53 25 4
0.342714 -0.473698 1.29966 122 84 64
0.0543572 -0.377104 1.47938 152 106 82
-0.0121174 -0.476093 1.46453 98 54 38
0.335031 -0.201853 1.4742 157 130 117
-0.243023 -0.404429 1.44593 111 59 44
0.0316557 -0.40391 1.47812 138 89 72
-0.180693 -0.388165 1.48019 94 57 28
-0.326837 -0.216733 1.28784 32 24 30
-0.0412649 -0.429367 1.52258 92 45 22
-0.0314548 -0.478574 1.4713 179 116 92
0.443021 -0.175274 1.37085 140 98 79
0.0794871 -0.0647236 1.37549 109 80 70
-0.184227 -0.388094 1.48268 98 60 26
-0.364074 -0.348398 1.23621 129 124 118
0.12042 -0.0836915 1.37851 67 14 12
-0.18336 -0.388124 1.4787 96 58 25
-0.346193 -0.355961 1.24261 90 84 82
-0.360835 -0.352865 1.23594 116 112 102
-0.340707 -0.353163 1.24217 48 49 55
-0.336617 -0.343117 1.24453 83 74 72
-0.349068 -0.35704 1.23501 120 114 102
-0.355471 -0.355632 1.23588 104 98 92
-0.338103 -0.347908 1.24442 44 40 56
-0.364533 -0.344439 1.23626 88 86 91
-0.339067 -0.352996 1.23717 84 81 80
0.338311 -0.477733 1.2853 158 110 84
-0.0314174 -0.478788 1.47329 178 115 90
0.00397308 -0.47263 1.46817 116 77 54
0.362888 -0.330526 1.43182 49 12 5
0.35077 -0.285882 1.47292 46 29 16
0.48122 -0.169679 1.364 136 104 91
0.0585862 -0.146404 1.4146 156 129 122
0.337625 -0.477684 1.28426 143 96 69
0.415213 -0.370873 1.45638 87 72 42
-0.28731 -0.0736985 1.36072 122 30 28
-0.28882 -0.0704291 1.36542 119 28 28
0.372505 -0.587297 1.44662 104 88 45
-0.294623 -0.345525 1.4886 71 34 22
-0.347811 -0.197869 1.28168 67 61 70
0.378166 -0.475868 1.2599 142 100 73
0.350942 -0.469741 1.3063 108 64 39
0.0163519 -0.398879 1.48694 77 28 12
0.351447 -0.335961 1.44936 69 43 18
-0.0829493 -0.311377 1.40308 117 63 50
-0.336063 -0.202673 1.28999 21 16 28
0.0450805 -0.173602 1.151 90 74 68
0.340985 -0.467012 1.2956 118 86 68
-0.0519895 -0.474994 1.49046 62 16 6
0.0133231 -0.413417 1.4928 64 22 11
-0.244866 -0.253238 1.35063 130 30 24
-0.311755 -0.176381 1.31592 66 50 58
0.352779 -0.536888 1.4071 138 115 92
0.331561 -0.19768 1.47457 134 112 96
0.113778 -0.131281 1.3096 140 60 56
-0.293036 -0.268579 1.32904 157 142 121
-0.315455 -0.271442 1.28044 149 108 88
-0.253064 -0.455722 1.42183 31 14 10
0.459777 -0.57011 1.31096 168 121 96
0.404556 -0.43858 1.24614 158 141 132
-0.0102233 -0.476223 1.4669 44 10 2
0.405699 -0.420839 1.26183 73 53 48
0.0234454 -0.385047 1.48391 114 66 49
0.480634 -0.329165 1.34329 180 112 86
0.47445 -0.324755 1.34703 152 86 61
-0.0700292 -0.355357 1.45716 162 116 89
0.481409 -0.30579 1.34354 132 88 64
0.467119 -0.277691 1.36517 70 30 14
0.508876 -0.234172 1.38317 31 18 10
-0.323099 -0.288303 1.26897 146 92 90
-0.32031 -0.283426 1.25251 154 120 115
-0.375117 -0.276845 1.24749 172 125 118
0.0893022 -0.143464 1.31141 60 48 43
0.083453 -0.137559 1.30748 69 51 46
0.454837 -0.587701 1.29926 196 150 124
0.326512 -0.489495 1.29969 142 100 76
0.401473 -0.424955 1.25189 206 186 181
0.403674 -0.421161 1.26062 61 40 34
-0.276467 -0.449078 1.42952 72 34 15
0.43591 -0.290949 1.35858 79 44 32
0.361078 -0.285134 1.44303 130 103 86
0.47765 -0.273576 1.37726 146 109 86
0.360229 -0.258118 1.48239 92 54 28
0.508837 -0.24058 1.38971 54 33 16
0.0891401 -0.132959 1.30748 62 34 30
-0.313942 -0.174426 1.3207 49 26 32
0.107641 -0.0704008 1.36332 90 68 70
0.447732 -0.571174 1.31345 170 116 92
0.444154 -0.565631 1.31329 146 94 65
-0.0578573 -0.478348 1.49178 162 113 93
0.355239 -0.361424 1.41786 142 116 100
-0.0598858 -0.356645 1.46803 144 99 72
0.46671 -0.272297 1.36472 134 97 75
0.356792 -0.258463 1.47558 92 53 28
0.424325 -0.19564 1.35927 146 102 81
-0.320164 -0.284223 1.2513 162 136 134
0.0916043 -0.14977 1.31946 140 128 124
0.441619 -0.568592 1.30579 176 122 96
0.356113 -0.266104 1.4979 90 68 46
-0.325497 -0.276673 1.25388 155 140 141
-0.39804 -0.245993 1.28551 134 71 55
0.0751082 -0.148546 1.31607 162 136 129
0.133748 -0.134132 1.31401 100 83 78
0.36122 -0.508049 1.34516 148 120 98
-0.0444485 -0.466524 1.46266 100 38 19
0.409085 -0.422006 1.44078 118 72 35
-0.237057 -0.390188 1.46426 189 134 106
0.356385 -0.333703 1.43442 145 110 89
0.45859 -0.280159 1.37201 154 126 110
-0.358276 -0.343678 1.23941 80 82 104
-0.276823 -0.305395 1.4545 108 75 54
0.341712 -0.242488 1.50407 142 112 98
0.430633 -0.228944 1.40007 140 108 91
-0.330593 -0.284564 1.24356 132 56 61
-0.369087 -0.278586 1.24291 183 132 122
-0.378468 -0.274168 1.25182 143 48 46
0.064709 -0.207063 1.31056 71 12 10
0.401633 -0.146907 1.40833 102 54 55
0.40923 -0.128025 1.40412 40 19 16
-0.298337 -0.224335 1.3077 162 122 104
-0.00191641 -0.462109 1.47377 138 88 72
-0.275289 -0.452741 1.41958 115 74 52
0.415537 -0.395152 1.39354 82 81 52
0.355632 -0.297788 1.45742 90 66 34
-0.28637 -0.319194 1.44949 130 100 80
0.390326 -0.256887 1.48564 102 62 38
-0.267015 -0.300348 1.49011 120 89 72
0.415795 -0.191811 1.37046 87 40 20
-0.371185 -0.288084 1.23886 177 110 106
0.199397 -0.156494 1.34291 82 62 46
0.0813725 -0.134263 1.30496 44 24 19
-0.262089 -0.455386 1.43631 154 104 80
0.42859 -0.378654 1.38558 128 102 92
-0.293871 -0.34134 1.48426 74 42 27
0.363319 -0.253781 1.50006 122 93 72
-0.374313 -0.288436 1.24112 185 153 146
0.383606 -0.173793 1.39758 132 94 80
0.345221 -0.141405 1.50106 84 53 30
0.14512 -0.145738 1.30403 138 122 120
0.0856101 -0.144931 1.30567 93 80 76
0.073986 -0.139913 1.31103 107 94 90
0.351245 -0.50868 1.32919 154 134 114
-0.0577518 -0.473863 1.48372 126 82 64
-0.188824 -0.345732 1.45433 100 56 34
0.392689 -0.248784 1.54162 134 104 84
0.380548 -0.191328 1.40766 198 174 164
-0.373402 -0.280995 1.25487 180 142 138
-0.311323 -0.271682 1.25876 100 40 35
0.115028 -0.134929 1.3076 148 110 106
-0.0311374 -0.491926 1.46691 58 18 4
0.562033 -0.378216 1.43964 120 108 81
0.367632 -0.281891 1.4683 55 30 16
0.357269 -0.269463 1.48063 126 98 72
0.462203 -0.146694 1.37576 124 49 51
0.0533196 -0.363751 1.49038 166 144 124
0.364621 -0.330249 1.43722 48 14 7
0.126929 -0.144443 1.3144 144 126 118
0.448439 -0.590279 1.30387 189 141 118
0.442182 -0.316797 1.34747 60 52 57
0.34571 -0.214034 1.44606 145 72 44
0.349814 -0.184352 1.44832 164 124 118
0.466965 -0.402667 1.32546 172 142 124
0.48027 -0.301779 1.34791 105 60 37
0.464675 -0.27627 1.36977 84 43 25
0.409881 -0.10653 1.48807 200 172 164
0.135934 -0.134786 1.30383 54 38 32
-0.322137 -0.28997 1.25037 166 136 130
-0.364512 -0.340252 1.23603 94 90 94
-0.357456 -0.356658 1.25452 74 73 72
-0.398703 -0.244764 1.28946 126 62 45
-0.331891 -0.215124 1.2891 19 14 28
-0.0189351 -0.483791 1.47671 164 104 80
-0.330407 -0.212552 1.29433 21 18 34
0.407701 -0.37895 1.44355 153 135 102
0.355054 -0.334442 1.45947 98 73 50
0.369526 -0.330493 1.43699 127 84 67
0.356961 -0.295301 1.4556 105 79 48
0.395605 -0.151412 1.3945 123 69 70
0.414828 -0.105555 1.49858 212 186 177
0.143394 -0.136438 1.31231 116 102 99
0.13341 -0.134181 1.30436 66 49 43
0.455033 -0.569288 1.31163 198 146 124
0.452107 -0.561355 1.30647 183 133 110
0.338529 -0.356373 1.41385 130 100 84
0.358452 -0.33069 1.44671 68 25 4
0.402092 -0.427405 1.26491 160 140 132
-0.36111 -0.296129 1.24329 178 69 72
0.408074 -0.422423 1.43608 113 78 36
0.409954 -0.414969 1.43967 100 55 20
0.432788 -0.394746 1.42467 123 119 82
0.37714 -0.392476 1.46407 122 82 52
0.362784 -0.286792 1.44819 156 124 103
0.329293 -0.484585 1.30095 94 51 22
0.360588 -0.352836 1.44983 116 86 70
-0.301872 -0.377715 1.47645 133 112 90
-0.300245 -0.368595 1.47763 157 144 128
0.386519 -0.277447 1.49251 43 22 13
-0.328309 -0.202065 1.29736 68 64 76
-0.269799 -0.461083 1.4411 134 92 66
0.0109144 -0.415376 1.46878 53 14 8
0.331326 -0.240798 1.50237 113 80 50
0.198568 -0.155746 1.34725 95 73 60
-0.303889 -0.357286 1.47537 124 100 76
0.403785 -0.257175 1.41045 66 50 42
0.472257 -0.577018 1.31685 150 130 86
0.355187 -0.43767 1.2971 43 4 1
0.0488698 -0.300524 0.745975 74 40 28
0.347366 -0.356506 1.41522 166 134 118
-0.133586 -0.304426 1.38518 118 72 60
0.445305 -0.166406 1.373 134 100 84
-0.350376 -0.141436 1.34041 150 98 80
0.470889 -0.575909 1.31456 130 104 63
0.469158 -0.558971 1.31158 37 26 10
0.471861 -0.556359 1.30583 163 128 100
0.367029 -0.333182 1.45273 182 146 129
0.473829 -0.291994 1.35372 58 24 17
0.400112 -0.149117 1.40666 156 108 105
0.491704 -0.130489 1.38523 58 45 38
-0.357523 -0.14755 1.30724 59 0 1
-0.0355377 -0.494285 1.47625 62 21 8
0.371484 -0.330396 1.43078 46 13 4
0.448384 -0.167571 1.37248 135 96 78
-0.352106 -0.0486594 1.33385 130 25 25
0.457189 -0.570595 1.31277 194 146 124
-0.0352237 -0.41845 1.48949 154 99 70
0.427774 -0.314372 1.361 20 9 10
0.434658 -0.300351 1.34751 160 120 105
-0.314963 -0.26923 1.28759 154 120 102
-0.228006 -0.428576 1.42759 78 32 20
0.471644 -0.28484 1.35152 166 137 118
-0.321633 -0.315 1.27358 136 88 70
0.386949 -0.193221 1.38669 130 82 61
-0.346619 -0.205917 1.27989 57 48 58
-0.315316 -0.162582 1.32625 68 2 2
-0.348185 -0.0505936 1.32534 124 22 21
0.461281 -0.568146 1.32285 156 106 84
0.00905677 -0.457281 1.46394 96 56 41
0.0423431 -0.425269 1.48871 33 10 3
0.429078 -0.380456 1.42033 107 105 71
0.439403 -0.247503 1.38202 140 117 105
0.468274 -0.227358 1.39416 132 112 94
-0.191245 -0.423197 1.46782 150 140 96
-0.190684 -0.311741 1.41595 137 87 62
0.08355 -0.201774 1.3165 26 13 10
0.148968 -0.139885 1.30931 135 115 112
-0.0223216 -0.550465 1.59034 144 139 95
0.130097 -0.15647 1.3094 104 54 42
0.0885303 -0.115931 1.38034 132 108 102
0.485445 -0.305499 1.34741 130 86 69
0.41699 -0.293973 1.35715 61 15 2
0.133247 -0.13457 1.30569 56 38 28
-0.0383032 -0.420906 1.51775 121 65 35
0.0640508 -0.402184 1.48977 82 65 22
0.413554 -0.295102 1.36601 90 45 24
-0.257672 -0.464202 1.42349 146 100 79
0.392456 -0.3273 1.38706 152 144 120
-0.0257976 -0.503308 1.47299 106 74 56
-0.314272 -0.12773 1.37211 111 34 14
0.0848483 -0.200458 1.30399 30 10 4
0.393436 -0.144715 1.4022 148 101 100
-0.338842 -0.166887 1.30994 32 20 32
-0.379651 -0.0867137 1.3671 164 83 32
0.0169881 -0.413868 1.49091 50 16 10
0.172405 -0.145097 1.31205 142 126 114
-0.234213 -0.402873 1.43712 170 106 83
0.0210553 -0.375202 1.47731 54 16 10
-0.241653 -0.378857 1.46419 95 41 20
0.0304452 -0.184051 1.52484 150 112 94
0.370917 -0.147962 1.42223 178 150 140
-0.290419 -0.0773953 1.36249 125 18 20
0.438338 -0.352045 1.32926 187 104 76
-0.336654 -0.210319 1.28182 88 82 89
-0.32878 -0.199439 1.29315 27 22 34
0.356475 -0.437174 1.2921 52 10 6
0.417666 -0.307306 1.36047 172 133 110
-0.120897 -0.303061 1.39309 84 39 19
0.382092 -0.276162 1.48831 60 40 28
-0.326683 -0.290783 1.2547 125 56 54
0.126644 -0.164108 1.28827 110 76 60
0.143373 -0.128008 1.30468 138 121 118
0.338137 -0.468367 1.29143 122 85 66
0.469143 -0.574358 1.31157 118 90 50
-0.364447 -0.339951 1.23682 96 90 92
-0.360674 -0.324049 1.24954 150 135 124
0.450996 -0.176124 1.36782 136 100 84
0.0852962 -0.200751 1.30348 32 10 4
-0.326849 -0.0560954 1.35195 114 27 30
0.466885 -0.569328 1.33009 178 130 106
-0.272264 -0.272418 1.33776 113 40 12
-0.350429 -0.140128 1.34155 145 96 71
0.0671007 -0.0709689 1.37911 78 46 36
0.34241 -0.456031 1.31946 128 100 89
-0.36036 -0.324483 1.2461 158 142 128
0.422801 -0.285367 1.38266 172 130 108
0.427188 -0.219569 1.40841 96 54 26
-0.331813 -0.127177 1.35427 155 92 27
-0.374308 -0.138106 1.30771 136 48 38
-0.340058 -0.330024 1.24868 160 148 130
-0.387374 -0.193614 1.28723 144 88 74
0.0227537 -0.144734 1.37621 119 95 90
-0.35825 -0.148213 1.30935 58 2 4
-0.0139857 -0.530724 1.49305 150 148 96
-0.339225 -0.331844 1.25064 161 146 125
-0.320431 -0.31052 1.27405 116 28 21
0.114842 -0.141616 1.30454 138 54 46
-0.355295 -0.151647 1.29855 72 6 10
-0.354593 -0.0488896 1.34195 138 21 23
0.489363 -0.123741 1.38897 132 104 91
-0.350721 -0.119148 1.38902 86 6 4
-0.38046 -0.109141 1.3427 145 27 20
0.0201689 -0.428307 1.49876 114 67 48
0.0594697 -0.416361 1.49135 92 71 32
0.393543 -0.575688 1.44297 97 80 58
0.346148 -0.496244 1.32556 130 100 72
0.331221 -0.462709 1.31767 108 92 78
0.340851 -0.43892 1.32955 109 76 52
0.458192 -0.376863 1.35124 140 104 89
0.457386 -0.367578 1.33321 235 184 160
0.557859 -0.370866 1.44009 136 120 96
0.52892 -0.362114 1.3876 129 96 78
0.460755 -0.355919 1.34622 146 94 72
0.501806 -0.351291 1.32256 138 97 65
0.450772 -0.345871 1.34605 108 50 36
0.520218 -0.343138 1.33906 120 84 52
0.419322 -0.341467 1.35535 84 63 54
0.478005 -0.340416 1.3447 42 10 0
0.427764 -0.330692 1.32496 81 75 79
0.408852 -0.334314 1.46976 18 20 12
0.404194 -0.333246 1.46891 39 26 12
0.371867 -0.330018 1.41911 50 13 2
0.455728 -0.324012 1.34505 80 64 60
0.516764 -0.321757 1.34862 170 134 116
0.405419 -0.326942 1.48292 140 122 100
0.475969 -0.313047 1.36061 128 78 60
0.459241 -0.311052 1.34234 118 77 60
0.435571 -0.310535 1.3556 41 28 30
0.350446 -0.310808 1.4567 196 166 142
0.45883 -0.306569 1.34353 48 22 18
0.347933 -0.292001 1.45651 156 125 106
0.54725 -0.288114 1.43828 144 132 111
0.34275 -0.289984 1.46267 55 30 14
0.357303 -0.287536 1.47956 32 10 0
0.547097 -0.281098 1.4314 45 34 18
0.348749 -0.280153 1.48623 130 110 102
0.474528 -0.278779 1.35871 110 76 55
0.376567 -0.277588 1.45927 44 24 11
0.53519 -0.275638 1.42643 54 36 22
0.46709 -0.276239 1.37389 72 26 10
0.441538 -0.255394 1.38028 60 38 27
0.410734 -0.254919 1.38178 50 24 10
0.523811 -0.252304 1.39573 164 144 125
0.516104 -0.249661 1.37466 70 46 26
0.524879 -0.238757 1.3917 58 42 26
0.594536 -0.232889 1.43851 160 124 101
0.464141 -0.228193 1.38569 117 100 86
0.466779 -0.2259 1.38459 124 108 92
0.338335 -0.195524 1.47213 123 42 24
0.390581 -0.195765 1.40878 214 166 146
0.388276 -0.195598 1.38912 194 147 126
0.564773 -0.190633 1.40549 170 143 134
0.41628 -0.187606 1.35567 205 166 147
0.435034 -0.177391 1.3745 158 124 108
0.363541 -0.166888 1.44565 134 108 100
0.494503 -0.171618 1.37548 214 186 172
0.494725 -0.169177 1.38114 206 178 162
0.413834 -0.151779 1.46919 244 224 218
0.413705 -0.150112 1.45308 213 190 184
0.174657 -0.167437 1.33974 118 104 91
0.530903 -0.146654 1.40114 78 55 40
0.206139 -0.154015 1.37018 94 75 60
0.538433 -0.145065 1.39723 56 36 22
0.405857 -0.143885 1.38662 150 78 74
0.171147 -0.141279 1.35264 72 30 21
0.511743 -0.120677 1.39887 182 151 125
0.425338 -0.0970238 1.53513 210 184 174
0.142985 -0.141299 1.29277 98 77 72
0.0702056 -0.069992 1.36506 92 61 56
0.324575 -0.509853 1.37218 158 130 101
-0.0588535 -0.495536 1.49737 143 127 91
0.343356 -0.441638 1.31131 129 95 76
0.55923 -0.398974 1.43284 134 98 60
0.41833 -0.373748 1.35013 158 127 108
0.43468 -0.373143 1.41568 131 119 104
0.420537 -0.367194 1.35281 102 42 28
0.506852 -0.35905 1.35788 80 52 44
0.511207 -0.354807 1.32744 104 78 45
0.49628 -0.355101 1.34492 73 38 28
0.448893 -0.354035 1.33682 126 64 44
0.486093 -0.344535 1.35519 70 36 25
0.524701 -0.343947 1.34865 131 102 70
0.431577 -0.340119 1.35624 37 32 34
0.501333 -0.337657 1.32402 149 122 103
0.380521 -0.336362 1.43522 56 23 6
0.411673 -0.338173 1.46906 93 100 90
0.431155 -0.331067 1.33403 71 64 68
0.431268 -0.332197 1.52603 146 141 120
0.351417 -0.324488 1.44945 128 102 78
0.411776 -0.324122 1.52114 48 27 12
0.416598 -0.316602 1.42278 113 92 66
0.411419 -0.318611 1.52021 126 110 90
0.471219 -0.311488 1.37275 128 80 60
0.414447 -0.310594 1.52596 156 144 120
0.437361 -0.300043 1.33048 43 22 22
0.505642 -0.296559 1.3596 90 62 36
0.427943 -0.297928 1.56538 123 106 76
0.474374 -0.295014 1.33407 74 30 14
0.54252 -0.287905 1.42628 144 132 111
0.35771 -0.287546 1.48688 59 36 26
0.376017 -0.283561 1.45776 34 14 0
0.369565 -0.282415 1.48029 52 24 11
0.423084 -0.277766 1.37035 214 188 168
0.33312 -0.269373 1.49958 126 101 75
0.497769 -0.26094 1.37808 42 17 6
0.399761 -0.259027 1.38674 158 108 84
0.508416 -0.255853 1.36296 168 147 128
0.429593 -0.251698 1.38096 174 145 126
0.524698 -0.248162 1.41896 182 152 132
0.574252 -0.240303 1.43277 74 38 11
0.56755 -0.237143 1.44299 120 102 84
0.527133 -0.238541 1.39756 88 70 57
0.433146 -0.229465 1.40964 152 118 100
0.487571 -0.17207 1.36292 192 163 148
0.344077 -0.1589 1.4731 66 46 35
0.540197 -0.162726 1.38604 104 76 60
0.402768 -0.155897 1.42231 204 184 178
0.513778 -0.159308 1.37838 153 90 76
0.393779 -0.148977 1.39949 138 90 89
0.497905 -0.143914 1.37267 198 171 148
0.144869 -0.135076 1.31403 128 110 102
0.0625933 -0.0901056 1.37744 104 22 20
0.338373 -0.477586 1.41613 97 80 44
-0.0580852 -0.483813 1.48544 64 41 17
-0.0454596 -0.469415 1.48028 128 63 39
0.483982 -0.385167 1.38446 154 128 116
0.428985 -0.368508 1.41475 92 82 64
0.513249 -0.361802 1.36034 161 127 110
0.524708 -0.358823 1.34039 127 103 62
0.507403 -0.35431 1.31884 98 68 36
0.472256 -0.339631 1.33256 31 5 3
0.493735 -0.336709 1.33433 141 72 40
0.490624 -0.335517 1.35549 188 120 88
0.458635 -0.332537 1.35324 54 24 15
0.0309131 -0.344551 1.52873 30 8 1
0.51881 -0.325405 1.33496 82 52 36
0.413594 -0.332324 1.49024 137 127 110
0.406552 -0.327544 1.48845 112 91 70
0.51688 -0.319886 1.33401 132 98 78
0.364348 -0.321467 1.48077 106 66 40
0.413124 -0.314668 1.34488 162 132 118
0.413296 -0.318557 1.52623 126 110 90
0.50486 -0.296024 1.36932 60 24 7
0.538926 -0.290458 1.42841 21 5 0
0.353005 -0.287549 1.46919 42 22 15
0.468637 -0.284677 1.37212 172 110 91
0.365695 -0.283554 1.43639 72 44 25
0.372501 -0.283479 1.44512 34 14 0
0.526914 -0.281396 1.40532 150 130 115
0.444921 -0.279848 1.36645 139 112 96
0.537392 -0.275454 1.42895 25 12 3
0.465047 -0.273441 1.36288 126 82 63
0.428364 -0.266832 1.36488 138 112 96
0.441062 -0.257099 1.39008 182 156 141
0.493236 -0.252544 1.40085 20 11 6
0.340086 -0.237717 1.51259 160 126 102
0.514613 -0.239141 1.39915 56 34 20
0.515523 -0.215987 1.48371 188 164 150
0.559793 -0.215088 1.42921 72 44 20
0.17073 -0.214779 1.37745 160 122 100
0.543921 -0.17822 1.42255 210 192 188
0.345049 -0.171795 1.39613 100 72 73
0.544806 -0.168142 1.39345 165 134 120
0.544738 -0.16785 1.38355 134 75 48
0.511479 -0.167366 1.3629 59 36 30
0.544295 -0.162424 1.39257 112 80 63
0.172094 -0.168218 1.35577 158 127 115
0.52016 -0.158592 1.39149 142 78 62
0.399535 -0.135489 1.34904 138 102 98
0.169925 -0.136888 1.35187 136 80 68
0.51988 -0.119441 1.41537 174 140 110
0.0701386 -0.0762409 1.3438 78 47 38
0.392008 -0.573673 1.43303 110 96 65
0.337349 -0.557073 1.4104 145 132 86
0.342158 -0.494472 1.31007 128 108 84
0.336094 -0.475322 1.40514 98 82 44
0.495184 -0.388899 1.41289 150 128 116
0.444149 -0.369286 1.34447 152 71 48
0.522855 -0.363307 1.38417 142 109 94
0.47314 -0.358277 1.34544 74 38 22
0.505785 -0.35857 1.35512 80 52 42
0.515678 -0.352965 1.32668 131 90 58
0.49046 -0.35211 1.35271 88 49 32
0.50005 -0.349868 1.32856 180 142 120
0.0526016 -0.35225 1.49342 84 61 32
0.412356 -0.338161 1.46984 122 128 118
0.434229 -0.331766 1.34208 39 32 36
0.385134 -0.333095 1.43871 105 72 50
0.521948 -0.327691 1.35072 173 146 128
0.527946 -0.32311 1.37381 167 134 118
0.423847 -0.322869 1.36844 40 24 15
0.505518 -0.321094 1.34832 110 74 53
0.353575 -0.32476 1.45606 129 104 80
0.367397 -0.324487 1.43936 139 102 84
0.491855 -0.316744 1.35663 140 94 72
0.353581 -0.293535 1.47833 162 128 106
0.340247 -0.276546 1.48655 151 135 114
0.439572 -0.25608 1.3893 182 156 140
0.524838 -0.249061 1.41691 184 154 135
0.520078 -0.246133 1.40999 48 22 6
0.514773 -0.241963 1.39281 180 154 140
0.5031 -0.238538 1.34586 26 16 10
0.562052 -0.214737 1.43383 64 36 14
0.429054 -0.20434 1.38709 112 69 48
0.558887 -0.201386 1.39822 134 108 87
0.419658 -0.203255 1.37867 142 108 96
0.495779 -0.166976 1.35788 192 158 142
0.525334 -0.148937 1.38871 118 95 82
0.20289 -0.157912 1.33755 102 82 68
0.205298 -0.141566 1.36879 91 65 60
0.419788 -0.124702 1.40837 170 138 134
0.427007 -0.120968 1.40878 44 22 20
0.143011 -0.139723 1.28753 126 108 101
0.145219 -0.128896 1.31309 188 170 164
0.119176 -0.086325 1.37326 82 10 8
0.335158 -0.490973 1.29084 130 108 86
0.325646 -0.508735 1.38266 102 76 44
0.346282 -0.475311 1.2842 128 82 59
-0.0121909 -0.50158 1.49283 96 58 42
0.333527 -0.459713 1.33824 88 74 62
0.0474718 -0.440232 1.52803 83 66 28
0.478012 -0.385241 1.3741 148 130 118
0.44938 -0.376697 1.33798 136 95 80
0.481742 -0.367849 1.36267 120 78 52
0.531783 -0.35889 1.36019 116 88 49
0.443259 -0.356529 1.36499 134 38 16
0.505574 -0.345027 1.36159 170 110 82
0.441821 -0.325264 1.51329 132 114 86
0.438524 -0.315702 1.53138 60 40 18
0.567328 -0.299292 1.4399 134 90 60
0.47202 -0.292159 1.35206 49 20 12
0.541359 -0.290808 1.43685 39 20 10
0.359015 -0.288714 1.44417 166 132 106
0.477651 -0.284468 1.40033 175 119 99
0.347798 -0.275138 1.49832 31 18 8
0.378148 -0.237976 1.40204 98 82 64
0.40259 -0.232654 1.41327 93 77 60
0.427019 -0.227889 1.41564 110 78 56
0.460919 -0.225277 1.353 197 174 162
0.556742 -0.215922 1.42565 96 68 43
0.170796 -0.21317 1.40037 128 66 46
0.53692 -0.179168 1.41117 181 164 158
0.50424 -0.177263 1.37778 160 105 87
0.517342 -0.164871 1.37938 74 37 29
0.526778 -0.162477 1.37741 44 24 14
0.171672 -0.169054 1.35559 140 101 88
0.519659 -0.154548 1.37581 56 35 28
0.124129 -0.148634 1.31361 84 45 37
0.168821 -0.135779 1.35114 131 48 42
0.131567 -0.131499 1.30127 38 20 10
0.382313 -0.565778 1.40201 136 122 88
-0.0261661 -0.500767 1.45789 87 54 38
-0.0172873 -0.486138 1.45706 146 95 74
-0.00451835 -0.452346 1.50283 128 76 56
0.473142 -0.38413 1.36308 148 130 116
0.0610686 -0.391336 1.4684 131 116 79
0.466784 -0.369242 1.36012 172 116 93
0.0635962 -0.374995 1.46672 88 67 31
0.508824 -0.36001 1.35619 116 87 79
0.493694 -0.35183 1.36044 53 26 16
-0.188983 -0.34615 1.45022 93 49 23
0.0481804 -0.346722 1.48465 97 62 34
0.542386 -0.30178 1.42441 150 132 108
0.548274 -0.300789 1.40205 136 79 52
0.512025 -0.283829 1.38136 154 130 110
0.536577 -0.275172 1.42841 82 62 50
0.364799 -0.269609 1.483 149 118 90
0.41934 -0.25299 1.38229 118 86 74
0.510897 -0.246295 1.39096 42 18 6
0.517882 -0.241184 1.39565 184 157 141
0.569784 -0.238486 1.42851 55 24 10
0.378265 -0.199868 1.37363 214 168 148
0.385427 -0.185125 1.42073 174 144 130
0.397945 -0.160257 1.43022 214 193 186
0.415073 -0.149443 1.4733 224 202 196
0.523866 -0.154127 1.38402 34 14 9
0.369798 -0.147673 1.41346 166 137 128
0.399317 -0.144068 1.41734 117 61 60
0.53266 -0.146834 1.38135 52 32 18
0.451537 -0.150943 1.34861 134 60 55
0.355226 -0.57899 1.42496 132 117 72
-0.00977149 -0.499858 1.46914 56 27 15
0.457599 -0.368148 1.33473 174 121 96
0.0631707 -0.37937 1.48089 91 70 33
0.431686 -0.366185 1.40511 156 128 116
0.516912 -0.356345 1.3332 114 82 49
0.0279543 -0.358461 1.46207 158 107 88
0.0305767 -0.344426 1.4984 26 6 0
0.4096 -0.338967 1.49258 12 8 4
0.438968 -0.326079 1.51114 100 80 49
0.426747 -0.319534 1.40185 164 134 122
0.456041 -0.317141 1.35889 12 7 12
0.416455 -0.295061 1.37459 82 39 20
0.475769 -0.276397 1.3941 110 56 39
0.420718 -0.269222 1.39653 181 142 116
0.414127 -0.254958 1.36959 118 86 74
0.445303 -0.251824 1.3732 142 116 107
0.517624 -0.249218 1.38809 150 122 106
0.493013 -0.226148 1.38996 160 133 122
0.561177 -0.215784 1.4358 96 68 43
0.400622 -0.194017 1.66812 158 104 83
0.578474 -0.200031 1.43238 108 77 44
0.407709 -0.205609 1.36171 145 114 100
0.415797 -0.188086 1.36039 156 113 92
0.390581 -0.172964 1.42145 152 113 96
0.501122 -0.174205 1.36755 166 102 81
0.497124 -0.162742 1.36562 190 162 141
0.538184 -0.14854 1.42247 37 14 6
0.475633 -0.138752 1.34997 54 38 34
0.160783 -0.0953636 1.35191 156 28 25
0.0721655 -0.0670479 1.38223 96 64 55
0.320355 -0.512044 1.35976 99 72 34
0.339392 -0.471506 1.37225 90 86 72
-0.0560749 -0.49096 1.47649 127 114 74
-0.0636346 -0.475211 1.49863 117 104 64
0.0470866 -0.473519 1.52023 58 44 17
-0.0477421 -0.45485 1.44421 170 104 77
0.0193763 -0.430733 1.5017 112 64 46
0.539558 -0.391833 1.39789 127 82 56
0.421065 -0.373088 1.3468 121 24 18
0.538179 -0.37697 1.39543 88 70 64
0.454119 -0.368332 1.32653 158 104 79
0.38246 -0.370485 1.66613 90 82 47
0.497371 -0.346132 1.30803 172 144 118
0.377312 -0.348487 1.43193 156 122 102
0.427893 -0.34378 1.37651 94 76 69
0.505257 -0.337185 1.32732 108 91 76
0.422925 -0.340763 1.44554 126 112 80
0.353917 -0.32974 1.43139 70 26 6
0.403183 -0.326754 1.45661 158 147 124
0.507337 -0.320081 1.32502 162 122 104
0.427235 -0.319333 1.37508 30 18 14
0.363067 -0.302982 1.42466 142 107 84
0.422124 -0.287353 1.38381 172 128 106
0.539417 -0.28564 1.4497 164 137 120
0.339786 -0.280933 1.42354 114 92 82
0.421019 -0.27499 1.51447 71 46 21
0.47295 -0.275924 1.37447 94 50 28
0.370882 -0.272963 1.42791 132 102 80
0.344019 -0.264186 1.50056 144 88 60
0.335101 -0.233485 1.48251 160 136 121
0.398437 -0.146121 1.31957 188 145 89
-0.0568972 -0.486795 1.50308 76 34 14
0.478874 -0.382641 1.37016 136 106 91
0.352901 -0.385566 1.45192 90 63 26
0.429826 -0.376553 1.36664 123 12 8
0.426806 -0.36724 1.40889 89 76 56
0.449656 -0.365532 1.38969 196 102 75
0.497424 -0.360241 1.32711 162 129 109
0.517635 -0.360153 1.38058 95 60 47
0.494875 -0.34752 1.36879 82 38 20
0.489089 -0.345185 1.36062 120 76 60
0.57039 -0.366397 1.87397 152 144 108
0.444905 -0.345366 1.51744 94 79 49
0.418634 -0.334536 1.34938 86 68 60
0.402887 -0.336391 1.44042 190 194 184
0.606556 -0.337407 1.50539 58 28 6
0.535146 -0.326882 1.37673 169 140 120
0.461941 -0.324456 1.32515 74 19 3
0.531283 -0.325553 1.36312 58 29 12
0.504015 -0.318977 1.31638 68 22 7
0.410414 -0.323632 1.51403 36 14 2
0.54335 -0.317706 1.38036 114 79 57
0.408877 -0.317903 1.51306 144 126 100
0.393915 -0.315139 1.472 74 48 20
0.491604 -0.300783 1.3329 108 82 61
0.440131 -0.303433 1.51914 88 62 30
0.569044 -0.297529 1.43927 124 81 58
0.359229 -0.297772 1.46159 120 92 63
0.538335 -0.293577 1.42703 134 109 92
0.433466 -0.293244 1.38015 72 32 20
0.480395 -0.291703 1.36952 59 24 10
0.453854 -0.287733 1.32127 80 41 24
0.520411 -0.281722 1.3897 135 118 105
0.568726 -0.279425 1.47279 129 112 86
0.359571 -0.279667 1.47629 114 90 58
0.456861 -0.274799 1.3431 120 77 58
0.551164 -0.270011 1.45695 64 50 37
0.463286 -0.246016 1.41127 134 106 92
0.594421 -0.2387 1.47308 68 33 6
0.521883 -0.238739 1.397 119 102 93
0.491494 -0.219206 1.42454 203 180 168
0.372384 -0.199282 1.3556 131 81 61
0.485266 -0.184119 1.33666 148 98 84
0.432148 -0.181787 1.36207 118 70 46
0.545525 -0.176414 1.3904 132 89 70
0.55104 -0.171419 1.40723 136 82 62
0.333 -0.170029 1.44286 134 124 111
0.530596 -0.166251 1.39305 55 32 26
0.171527 -0.158535 1.29981 74 60 51
0.171135 -0.135617 1.36499 153 88 80
0.556617 -0.108145 1.46819 158 129 110
-0.367622 -0.0850449 1.41506 137 98 82
-0.35735 -0.0873598 1.39249 124 74 62
0.354355 -0.502912 1.35241 131 106 80
0.327 -0.488469 1.3837 108 104 71
0.32613 -0.463408 1.3039 111 94 80
0.337021 -0.468522 1.34154 91 82 68
-0.0717018 -0.498926 1.57955 80 66 31
0.337404 -0.464896 1.39926 148 122 94
0.338304 -0.381236 1.3984 94 72 32
0.555854 -0.37024 1.43691 142 126 102
0.425099 -0.342598 1.37269 150 124 116
0.41163 -0.347125 1.47323 66 80 67
0.492736 -0.341662 1.3913 54 22 8
0.520476 -0.359362 1.72706 143 134 96
0.478894 -0.328214 1.3161 158 92 59
0.612959 -0.338233 1.51891 72 42 21
0.523244 -0.320661 1.35601 90 48 32
0.497819 -0.317585 1.29724 151 110 88
0.535035 -0.319269 1.35321 140 110 86
0.436186 -0.324367 1.49956 124 109 82
0.434085 -0.315961 1.48577 50 32 10
0.449977 -0.315246 1.56657 39 24 6
0.442903 -0.307632 1.52651 53 28 10
0.439206 -0.303384 1.52048 82 62 34
0.54561 -0.294477 1.44321 118 94 75
0.347092 -0.291641 1.44041 136 102 76
0.529413 -0.285658 1.41128 152 130 111
0.583328 -0.278436 1.50311 129 112 86
0.363019 -0.279885 1.48965 92 68 38
0.527503 -0.275865 1.41022 93 74 59
0.414376 -0.256695 1.44422 67 38 24
0.198942 -0.146134 1.35858 113 98 92
0.161453 -0.149475 1.28243 142 56 50
-0.374723 -0.110852 1.34098 171 87 48
0.33075 -0.550549 1.39925 120 98 55
0.332151 -0.473606 1.34983 152 131 116
0.331686 -0.468711 1.3908 95 77 36
0.32303 -0.458703 1.34494 155 130 104
0.332434 -0.458417 1.37467 104 76 48
0.481674 -0.371966 1.35882 112 74 49
0.429935 -0.371083 1.40028 137 121 107
0.484621 -0.367824 1.36317 106 72 44
0.549148 -0.369477 1.42061 138 124 97
0.0622021 -0.372945 1.52603 90 69 38
0.503091 -0.355014 1.36686 38 16 12
0.498821 -0.353358 1.36739 88 48 36
0.532661 -0.332342 1.36283 174 144 123
0.425687 -0.330775 1.50957 152 144 123
0.560349 -0.318273 1.41409 143 108 86
0.414447 -0.31707 1.41684 160 144 121
0.551774 -0.315239 1.4091 163 124 103
0.460689 -0.313045 1.36453 17 8 10
0.425074 -0.307697 1.47149 60 36 15
0.582712 -0.297926 1.46721 134 84 60
0.553746 -0.287242 1.45028 152 140 118
0.469211 -0.285158 1.27903 148 127 112
0.356378 -0.269858 1.46227 138 108 78
0.482049 -0.257149 1.30651 174 152 132
0.516872 -0.248765 1.37908 56 30 16
0.548835 -0.157833 1.40461 79 52 36
0.442072 -0.123048 1.46077 179 122 98
0.0782012 -0.0904389 1.36112 174 128 124
-0.385715 -0.0912538 1.37176 182 92 55
0.333171 -0.553085 1.41033 111 87 44
-0.0252621 -0.489199 1.45186 91 52 36
0.337023 -0.460305 1.39457 96 68 36
0.354491 -0.44747 1.37004 159 132 119
0.413609 -0.372997 1.32446 122 20 14
0.468131 -0.369416 1.32738 110 73 47
0.459402 -0.367012 1.31694 146 100 77
0.537973 -0.367995 1.39516 148 135 104
0.420127 -0.366932 1.38924 98 84 64
0.51422 -0.344478 1.43677 27 6 1
0.558047 -0.318973 1.39951 143 105 82
0.401412 -0.3166 1.37614 158 146 122
0.572455 -0.298735 1.44483 141 89 65
0.516778 -0.290839 1.37773 38 20 7
0.45701 -0.284994 1.3425 182 119 98
0.547937 -0.282093 1.44139 29 19 10
0.540117 -0.27512 1.43486 38 22 12
0.542648 -0.275081 1.42043 81 60 33
0.399629 -0.260292 1.37374 86 42 22
0.513794 -0.185135 1.3589 202 186 180
0.172651 -0.168096 1.35717 158 126 112
0.388398 -0.162094 1.37647 214 190 184
0.169966 -0.136291 1.35258 146 86 75
0.133416 -0.136416 1.32619 98 77 72
-0.347116 -0.104624 1.33458 134 60 28
0.331728 -0.468287 1.33169 104 92 76
-0.0623799 -0.490651 1.51671 69 50 24
0.329183 -0.435956 1.29087 160 134 120
0.344771 -0.43735 1.31093 167 130 110
0.411232 -0.36579 1.32871 100 42 26
0.409844 -0.348854 1.51596 114 72 50
0.411989 -0.336054 1.49317 13 7 3
0.394019 -0.333648 1.47313 94 60 41
0.392671 -0.323685 1.45994 97 70 51
0.43204 -0.318061 1.40686 163 131 116
0.448852 -0.312741 1.33958 14 6 10
0.512745 -0.276154 1.37848 93 74 59
0.339293 -0.269176 1.52657 135 110 84
0.471807 -0.264588 1.36226 27 14 6
0.577591 -0.243007 1.46823 136 118 100
0.5916 -0.237682 1.43256 110 76 45
0.452361 -0.193203 1.19586 140 83 54
0.495647 -0.169671 1.38269 191 162 149
0.421086 -0.162039 1.27744 152 86 83
0.506695 -0.133641 1.40909 194 170 156
-0.348682 -0.0960147 1.36687 140 92 80
-0.00802204 -0.492879 1.44382 98 59 40
0.344134 -0.480765 1.44484 138 128 84
0.350206 -0.466587 1.44022 96 70 33
0.347325 -0.447572 1.35931 158 132 120
0.34596 -0.442157 1.3314 136 102 81
0.434927 -0.366197 1.3307 175 88 64
0.420251 -0.353473 1.30566 164 67 44
0.521425 -0.360498 1.40966 50 30 28
0.555497 -0.32247 1.42754 130 85 63
0.453375 -0.31994 1.47309 164 132 120
0.550509 -0.316666 1.40861 149 102 80
0.449378 -0.313236 1.34432 12 7 11
0.38381 -0.311502 1.34202 66 46 21
0.544242 -0.307764 1.46235 168 144 128
0.497359 -0.297852 1.34796 111 80 58
0.336481 -0.288615 1.42571 36 10 4
0.535669 -0.281119 1.4153 32 22 13
0.395948 -0.262638 1.39537 156 114 92
0.520258 -0.247816 1.35158 136 116 96
0.352778 -0.235582 1.19957 111 69 46
0.501373 -0.217722 1.45272 192 170 157
0.345208 -0.211755 1.45289 148 69 40
0.493763 -0.170469 1.37873 182 154 140
0.513396 -0.17103 1.37184 162 138 132
0.163144 -0.179619 1.28942 139 72 57
