ply
format ascii 1.0
element vertex 1379
property float x
property float y
property float z
property uchar red
property uchar green
property uchar blue
end_header
1.65751 2.83941 9.5263 90 59 56
-0.847293 2.82974 9.33592 135 102 93
2.02856 2.77609 6.86328 111 88 77
1.3982 4.00259 10.6427 120 91 88
1.49344 -3.84254 9.85058 120 130 88
3.82874 -2.78885 6.15338 82 86 43
0.106076 -1.97395 9.48846 146 148 104
-0.137086 -1.904 10.3669 159 164 112
-1.153 -1.58061 9.83886 82 88 53
-3.24209 -1.67554 11.1043 135 134 78
0.983321 -1.29881 9.40461 138 143 107
0.651158 -1.03554 7.23851 78 86 76
2.40435 -0.106513 11.0729 46 29 10
2.51471 0.115239 10.7324 44 16 0
2.47031 0.270565 10.4132 58 33 18
-2.25308 0.444243 9.88081 127 96 62
1.85377 0.938813 8.77498 138 112 100
2.2998 1.06346 8.9291 74 40 24
1.63934 1.07754 7.87991 64 42 24
1.87832 1.2114 8.30675 163 136 131
1.96861 1.2375 8.29 155 130 120
1.98217 1.29371 8.52288 60 32 23
-1.20846 1.42649 8.63992 88 46 26
1.87596 1.59285 6.82846 81 66 44
-1.26935 1.51434 5.62138 102 108 88
-1.60825 2.08705 9.1695 126 113 88
-1.06265 2.05671 8.78732 28 9 5
-0.983557 2.10931 9.00178 27 6 4
1.97947 1.84025 6.69347 98 98 74
1.64873 2.88944 9.51901 98 70 66
2.0276 2.75647 7.35899 104 82 70
2.10999 2.68197 6.82673 155 138 130
2.17441 2.76498 6.83976 84 48 29
0.802143 3.85945 9.79955 122 92 89
-4.04808 -3.91816 9.25106 46 48 24
-1.7837 -2.96796 6.92831 78 78 26
-2.7675 -3.15538 9.46528 107 108 61
0.843127 -1.62256 5.8665 90 90 85
0.118309 -1.94264 9.20926 138 140 97
0.998342 -1.35629 9.77262 148 154 116
3.16868 -0.975723 9.93232 142 140 101
-0.0535584 -0.782923 8.13455 97 94 54
-0.253985 -0.505657 9.12932 54 55 24
-2.52841 -0.368829 9.74022 133 116 70
2.60138 -0.196884 11.0584 106 74 55
2.20183 0.555585 9.09227 142 108 90
-0.305557 0.971538 8.49244 22 9 3
1.5113 0.943914 8.16001 74 62 46
2.35252 1.10197 9.40268 66 33 17
2.37292 1.28454 9.41169 82 56 45
2.03293 1.25564 8.91155 158 133 122
0.036114 1.23843 7.96774 89 60 50
1.93618 1.31054 8.3704 130 100 92
-1.23113 1.44192 8.77659 88 46 26
-1.14147 1.44459 8.46531 114 88 82
-1.08736 1.51694 8.59786 32 10 4
-1.04698 1.70283 8.70188 50 17 10
2.02915 1.75588 7.49304 101 90 76
-1.27665 1.51921 5.66335 112 117 98
1.92778 1.70368 6.54081 136 130 116
-1.56612 2.77988 10.1516 136 112 91
1.68511 2.96812 10.0389 83 54 50
1.98662 2.75664 7.13097 76 50 36
2.03613 2.70753 6.87444 152 142 136
2.2732 2.83558 7.32922 88 54 35
2.05817 2.81383 7.04629 71 44 30
-2.8958 -1.55037 10.8885 109 108 58
-0.237296 -0.523678 9.03638 41 44 17
3.01712 -0.399767 9.32962 131 88 64
-2.4481 -0.349234 9.40526 132 114 68
2.56486 -0.170295 10.7787 99 68 48
2.66166 -0.0411528 10.7132 149 142 118
2.54898 0.144717 10.4983 55 21 3
2.26628 0.544487 9.59305 142 108 90
-0.850366 0.537533 7.57979 13 14 2
-2.05284 0.914686 9.26051 99 59 32
0.125024 0.897139 8.1137 45 22 13
1.72959 0.94205 8.40261 56 34 22
-0.32888 0.990946 8.72925 50 28 20
-0.412528 1.03347 8.39565 29 8 2
-0.00606473 1.00318 7.80702 89 58 48
1.94884 1.32821 8.48241 136 105 98
-1.24795 1.46018 8.7645 60 20 7
-1.13129 1.43905 8.40374 113 88 82
-1.1128 1.5109 8.80244 35 8 3
-1.29211 1.52603 5.74593 106 110 92
-1.59179 2.08924 9.05376 117 110 86
-0.987313 2.10324 9.07641 24 6 4
0.945857 2.70841 9.24537 40 21 20
1.67817 3.52067 10.568 52 22 14
1.97949 2.76963 7.1976 96 78 68
4.10808 -3.03734 7.10908 41 44 16
0.998944 -1.38182 9.71197 133 140 98
-2.6048 -1.44881 10.8392 122 123 67
2.99151 -0.733977 10.2703 61 47 20
2.61294 -0.0413839 10.4303 151 140 118
2.5813 0.121381 10.8947 62 28 8
2.50428 0.215799 10.711 97 66 40
-1.97043 0.743526 9.00053 72 40 22
2.25928 1.06255 8.78763 70 38 24
-1.95496 1.17492 8.74882 132 106 84
2.32492 1.26793 9.2161 70 45 34
1.97875 1.21433 8.35358 159 134 124
1.92289 1.30135 8.4416 86 54 48
-1.16287 1.43614 8.55274 106 74 60
-1.74445 2.60066 10.2868 132 112 88
0.86801 2.63595 9.01523 85 50 43
0.964256 2.68428 9.10357 32 17 16
1.55868 2.97882 9.69975 82 60 60
0.190044 4.34551 10.2465 78 32 24
0.999157 -1.43632 10.2289 116 124 84
2.57262 -0.14309 10.8806 96 68 44
-0.90905 0.528648 8.11181 14 11 2
-0.786301 0.510346 6.51217 106 114 87
1.86761 0.959319 8.77448 139 116 102
1.92922 1.01107 8.55458 56 27 10
-1.90636 1.27471 8.86291 104 89 62
-1.23204 1.34121 8.54138 128 88 64
-1.0677 1.50342 8.57266 33 10 4
-0.809407 1.68238 8.63272 98 50 36
-1.43559 1.7022 6.83464 111 110 90
1.96261 1.74083 6.99113 92 82 66
1.70656 2.19713 9.21191 90 70 66
1.97708 2.74498 7.11757 90 67 55
2.00105 2.61642 6.4319 145 137 134
1.7272 4.01977 11.0502 78 42 34
-0.249678 -0.540703 9.25629 38 42 16
0.199047 0.329177 9.93321 110 112 107
1.91489 0.840715 8.85264 30 10 3
1.68479 0.964764 8.87528 36 19 12
-0.977366 0.819036 6.56695 81 86 56
-1.95087 1.08782 9.36444 146 110 80
1.64336 1.08053 8.81411 116 95 78
-1.44164 1.72486 6.76119 126 124 102
-1.69417 2.21575 9.56002 126 122 98
2.15124 2.62937 6.54659 82 42 23
1.64809 3.71564 9.8634 80 43 35
3.3991 -1.50033 10.2253 73 66 26
2.67489 -0.53893 8.4288 94 86 58
2.12209 -0.565329 11.7893 142 145 108
1.95614 2.68078 6.79742 82 54 39
1.76059 -0.51408 11.7255 109 88 61
-0.917188 1.25383 6.8891 146 106 82
1.87329 -0.590729 12.3373 90 69 41
1.81757 -0.394494 10.3812 142 137 98
-3.03932 -3.37764 9.45968 93 96 47
3.27254 -2.59899 7.89958 83 88 60
1.54618 -1.28532 8.72126 76 80 66
0.677452 -1.07038 7.32233 90 98 88
-2.67678 -1.12552 10.612 140 129 98
2.88119 -0.988157 10.2959 104 114 72
-2.49858 -0.369365 9.60693 148 134 86
1.63503 -0.528069 12.0535 132 114 102
-1.04817 0.0741495 7.11555 92 95 69
2.65356 -0.0967834 8.87232 114 71 54
-0.208083 0.213154 9.57807 60 66 51
0.169663 0.783402 8.38125 89 70 58
0.0399823 0.885568 8.00579 44 20 8
1.98753 0.858815 9.16682 46 16 5
2.26652 0.860186 9.09446 90 43 16
-1.00621 1.07041 8.38836 90 66 55
2.57764 0.970264 9.98813 58 31 18
-1.0537 1.1221 8.49982 47 24 13
-0.0496455 1.02611 7.78811 50 20 11
1.82364 1.02903 7.94207 56 28 16
0.0568281 1.23836 7.98367 54 22 10
1.0037 1.18417 7.93371 98 78 60
-1.17014 1.40834 8.49711 86 46 26
1.02895 1.20451 7.9335 88 70 51
2.10908 1.23316 9.01565 50 22 14
-1.08273 1.42197 8.50835 63 24 7
1.09416 1.283 7.78491 124 104 90
1.66794 1.20094 7.53832 155 138 125
1.6637 1.28483 7.66908 90 72 52
1.21482 1.37998 7.54099 132 118 108
1.3026 1.43145 7.41816 80 68 50
1.86612 1.65142 9.04897 114 95 93
0.897195 1.78737 8.48855 32 7 4
-0.82469 1.99505 8.71178 112 70 61
2.22333 2.2879 10.4245 108 92 84
2.19839 2.39424 10.5 116 98 93
-0.174499 2.44754 8.61946 108 61 50
0.880494 2.67642 9.07711 122 96 92
0.940161 2.68283 8.96365 42 12 10
0.411951 2.97349 9.1449 93 49 42
0.0734427 3.23256 9.33693 118 86 76
0.842223 3.40067 9.51285 107 78 75
0.835352 3.51855 9.62885 118 93 90
1.63508 3.98108 10.8044 120 94 90
1.74587 4.09844 11.1415 79 51 45
1.57863 4.12122 11.0051 80 60 58
0.796018 4.02008 10.0322 120 98 96
0.121134 4.23503 10.0654 127 88 78
0.776497 4.41896 10.4997 100 64 57
1.93239 -6.11717 11.6485 105 110 58
-3.43013 -3.25236 9.13719 60 58 30
-2.7325 -3.13125 9.39413 85 86 44
-1.4127 -3.30043 10.8108 121 123 76
-1.49732 -1.63706 9.48296 76 78 52
1.51349 -1.25311 8.73972 66 68 54
2.92484 -0.994933 10.0704 147 155 119
-2.47267 -0.640729 9.81312 105 88 54
-0.486453 -0.288856 7.41294 100 104 72
0.29514 -0.120485 9.9538 96 100 95
-2.3492 0.572531 9.44599 146 122 102
-3.50286 0.603458 6.07906 82 80 59
2.64921 0.472423 9.80095 105 79 52
2.53778 0.576327 9.22695 94 66 50
0.0722949 0.777649 8.27593 40 24 14
-0.301348 0.874478 8.35894 26 12 10
2.06701 0.849541 9.03584 100 52 22
2.27047 0.849969 9.05881 90 46 20
-0.980924 1.05733 8.22201 77 52 40
1.83662 0.934505 8.804 112 92 82
-0.0616169 1.03805 7.99754 96 66 56
1.47758 0.965262 8.17636 60 56 41
1.89648 0.984606 8.76303 136 114 106
0.100178 1.23738 8.087 42 16 5
2.10745 1.23668 9.05401 61 36 26
1.92317 1.26233 8.56319 92 60 54
1.94698 1.32766 8.55444 135 104 99
1.14846 1.33324 7.66695 110 94 78
-1.19179 1.74074 9.0774 113 74 64
2.56188 1.74972 11.2037 66 51 34
1.87203 1.63431 9.0121 116 99 96
0.927494 1.76183 8.60856 110 87 84
2.34921 2.23361 10.9901 58 34 20
2.21793 2.29557 10.3905 101 86 79
2.20052 2.37018 10.5196 114 102 96
2.14555 2.41873 10.5248 54 32 25
-1.58684 2.01849 5.29443 82 86 60
0.881322 2.6555 9.05248 111 85 80
0.822175 2.70186 9.10029 47 18 10
0.913555 2.71008 9.13512 40 16 15
-1.52933 2.53126 4.99094 134 122 108
0.854277 3.46865 9.4596 104 80 76
1.38349 3.96904 10.4793 116 88 86
1.43516 3.97364 10.4964 79 50 50
0.0515232 4.28836 10.1559 92 40 29
0.221594 4.38466 10.244 96 49 38
0.156874 4.40085 10.2304 80 40 34
0.383117 4.41545 10.3609 90 52 44
0.76818 4.39959 10.4268 74 40 34
0.654374 4.5171 10.5345 83 46 38
1.95301 -6.08577 11.5673 80 86 33
4.29162 -3.25115 7.4112 102 106 60
4.1515 -3.15674 7.65321 157 161 113
-4.31481 -1.40669 11.4389 91 68 22
-1.10937 -1.27759 9.59591 85 87 58
2.91978 -1.0145 10.1384 144 156 116
2.15158 -0.748888 11.3782 128 129 99
-0.494315 -0.283318 7.43635 112 117 85
-0.984072 -0.157461 7.31449 130 122 74
-2.45162 0.161534 9.22279 136 96 77
-0.145384 0.213078 9.32194 56 61 46
0.0604716 0.87934 7.891 51 26 14
0.126586 0.936271 7.84868 64 42 36
-0.391433 1.01339 8.30483 20 8 2
1.87887 0.912705 8.85971 34 13 6
1.47881 0.961933 8.1949 46 42 28
1.75958 1.0181 8.82226 116 85 66
-0.994906 1.02769 6.05337 93 96 71
1.87205 1.03217 8.72439 50 28 16
2.28826 1.06213 8.93692 74 37 24
1.55187 1.08335 7.95108 114 96 78
-1.06357 1.42481 8.48997 72 30 14
1.99817 1.26311 8.70517 156 132 123
-1.16266 1.47175 8.64751 117 91 80
1.63159 1.26272 7.97665 151 134 122
-0.271911 1.40453 7.97388 104 56 28
-1.24913 1.33264 6.11002 100 100 78
2.55989 1.70998 10.9017 71 56 39
1.92166 1.62136 8.96185 32 13 8
2.4817 1.86352 11.0279 64 41 27
-1.26846 1.50954 5.63429 85 86 64
0.890172 1.76845 8.42023 26 8 4
2.40302 2.18238 11.2805 134 121 110
2.22007 2.27212 10.2836 102 86 79
0.0324308 2.24545 8.66803 120 92 85
-4.60589 2.37714 5.75601 82 72 53
-0.0089438 2.59065 8.83974 54 16 8
0.912103 2.71143 9.21294 43 20 19
0.00588319 3.36744 9.48018 63 18 8
0.0461376 3.85977 9.76202 54 20 14
-0.122156 4.46645 10.3948 122 75 56
0.622753 4.51865 10.6669 126 90 86
-4.37604 -4.48327 9.08217 112 116 73
-4.02153 -3.88883 9.15018 55 56 32
4.28242 -3.13075 7.59084 41 50 24
-1.22372 -3.74748 10.7581 88 98 64
1.01796 -0.827054 9.07055 86 90 74
2.17418 -0.672762 11.1072 56 52 22
2.93404 -0.204157 9.03902 114 78 63
2.76443 0.0126672 9.07414 134 95 81
2.52198 0.458062 9.11883 129 100 84
1.27327 0.726291 8.61363 49 48 36
-0.896608 0.780534 6.32754 92 94 62
-0.277657 0.886952 8.30571 20 6 3
-0.938545 0.83968 6.33881 100 102 73
1.98992 0.858205 9.17874 45 16 4
-0.435307 1.01647 8.39576 18 8 4
-1.07104 1.09204 8.41603 73 56 42
2.6454 1.09102 10.6616 102 88 74
1.85501 1.04199 8.73852 60 36 22
1.56923 1.05364 7.87162 100 86 66
2.23488 1.11279 9.18238 82 50 39
0.0455357 1.24382 8.14794 78 49 38
-0.749466 1.40609 8.27804 132 80 52
2.00983 1.24958 8.6432 152 126 120
-1.1503 1.29625 5.84687 88 88 66
1.91882 1.63535 9.06462 32 12 8
0.961005 1.71615 8.40573 112 90 84
2.19674 2.07141 10.1477 38 15 10
-0.0601088 2.61866 8.99964 57 22 11
0.887936 2.641 9.02795 115 84 78
-0.840979 2.9438 9.56756 111 88 84
0.0132723 3.35858 9.35949 60 15 6
0.610673 4.54375 10.5623 78 43 35
-4.38603 -4.47661 9.07441 123 126 82
-4.18957 -4.06998 9.05372 41 46 22
-1.17862 -3.69786 10.5721 81 91 56
-4.24721 -1.41923 11.2181 109 90 41
1.0153 -1.52503 10.4102 146 152 116
-2.7311 -1.14001 10.6241 148 140 88
-2.4001 -0.814828 10.151 131 117 76
-2.45325 -0.629233 9.74113 127 112 72
1.08469 -0.736203 9.65411 155 152 116
2.0981 -0.692051 11.9721 60 42 22
1.65422 -0.514866 11.625 91 74 60
2.91977 -0.200447 9.2048 138 102 86
-1.8634 0.143591 8.90511 57 57 39
-2.38734 0.378993 9.60808 84 59 36
2.5356 0.534235 9.28065 106 78 58
2.37274 0.612056 9.12363 142 95 78
1.97249 0.854351 8.99596 30 10 2
2.24803 0.856968 9.12008 114 74 47
1.44963 0.88802 8.09585 15 11 2
1.71391 0.96286 8.74043 28 12 6
1.92666 1.02838 9.01745 77 50 36
1.83688 1.03253 8.65475 84 56 39
1.51357 1.09859 8.22036 98 86 65
-0.0370257 1.21888 7.99354 44 13 5
1.64308 1.2159 7.74896 122 107 96
1.85264 1.27418 8.54682 77 40 32
2.55358 1.44539 10.7358 116 102 86
-0.0936412 1.42735 8.22291 85 45 32
-1.20391 1.31979 5.99308 96 95 74
1.15754 1.38382 7.65827 150 124 121
2.258 2.34526 10.766 60 44 38
0.00780771 2.26059 8.72378 77 48 41
0.823289 3.05019 9.46747 93 72 68
0.14268 4.39418 10.2616 100 64 58
-2.52938 -0.645545 9.95331 100 81 50
-0.330923 -0.109226 9.6105 27 14 4
2.27731 -0.125712 10.599 90 80 58
-2.33061 0.389416 9.42099 88 61 38
-0.746877 0.489389 6.45173 79 86 52
2.60007 0.824407 9.69224 83 58 40
1.97251 0.856753 9.14902 30 12 6
1.87048 0.891908 8.90425 36 12 6
1.45572 0.886903 8.01432 24 21 10
1.78896 0.934109 8.9402 82 56 42
1.86011 0.953652 8.78007 128 107 98
1.71339 1.04912 8.7055 116 85 66
1.58371 1.05045 7.74933 126 106 88
0.110594 1.23161 8.25663 40 16 8
-1.12926 1.29613 5.77953 102 102 80
1.13296 1.37792 7.71581 148 123 119
-1.29073 1.53572 5.6544 106 104 82
2.40066 2.14102 11.0958 114 98 86
-1.46529 1.7928 5.50791 88 91 66
2.18122 2.33794 10.4024 78 56 50
-2.30726 -5.79832 12.7631 76 82 34
-3.82125 -1.52999 10.8807 58 50 14
-2.57254 -0.653071 10.0323 106 88 56
2.05553 -0.709001 11.3884 100 97 66
-2.47698 -0.190198 9.65778 116 108 55
1.88116 -0.442019 11.813 96 80 52
-0.29192 -0.122079 9.3948 30 18 8
2.53464 0.497244 8.95741 128 100 83
-0.504022 0.979964 8.38609 12 6 5
1.95683 0.843203 9.15246 31 12 4
2.63104 1.06514 10.2244 87 72 56
2.33128 1.1704 9.59182 134 96 88
2.60128 1.24936 10.4662 76 53 36
1.95899 1.25219 8.54415 98 70 65
1.79483 1.2989 8.6062 74 37 28
-1.19567 1.46198 5.93152 72 70 48
2.46532 1.83776 10.8338 78 54 40
2.38135 2.24459 11.7079 114 101 88
-1.37184 2.44058 4.90923 68 64 34
-1.52974 2.51029 5.13069 135 124 104
0.762545 3.9939 10.0654 94 61 59
0.140513 4.3646 10.261 88 46 40
-2.65929 -0.170794 9.35202 148 133 78
0.0830581 0.777393 8.46136 78 62 52
2.28499 0.773852 10.4998 140 98 83
0.149851 0.925253 7.89494 16 4 2
1.58627 1.044 7.79332 122 102 84
1.6527 1.18919 7.69412 140 123 113
1.03229 4.29937 10.5065 70 38 36
-0.998898 -0.155647 7.37575 127 119 73
-2.43059 0.296989 9.2068 82 45 24
-1.32257 0.97213 6.29343 111 104 77
2.28843 1.05732 9.00051 63 27 14
1.93796 1.31675 8.71076 100 72 68
0.931508 1.37915 8.12767 63 25 9
0.88388 2.63834 9.04335 122 95 88
1.59258 2.98799 9.79649 118 94 93
1.69097 3.99187 10.911 66 34 31
1.41986 3.9911 10.5421 78 49 46
1.57384 3.03526 9.85493 111 88 86
-0.10906 4.46032 10.3466 92 44 24
3.41814 -1.37935 9.83076 86 82 46
1.2736 0.721355 8.63577 21 18 9
0.155133 0.848253 8.18145 23 11 4
1.86446 1.02901 8.78281 64 40 28
1.91308 1.25805 8.49444 128 98 90
1.87424 1.64294 9.23448 74 58 54
1.38873 3.96207 10.3931 112 85 82
1.15576 4.32082 10.6602 102 77 74
-1.03273 1.07876 6.05537 88 92 65
0.851196 2.9347 9.27815 122 104 98
-4.02512 -3.87442 9.11654 50 50 28
-1.10764 -1.27837 9.53354 80 80 50
1.86962 0.900745 8.89924 34 12 6
1.7907 0.927436 8.84802 82 55 42
0.0951992 1.25184 8.16995 47 18 8
0.916602 1.20754 7.94189 104 68 48
0.884312 2.6369 9.00561 88 54 46
-0.992937 0.848892 8.67729 10 5 2
1.9607 1.26472 8.5929 120 91 86
0.0451286 3.26459 9.37347 102 58 46
-1.54757 2.5338 5.08808 107 97 74
-4.19021 -4.10416 9.03549 39 48 26
0.0735102 0.783045 8.51629 70 50 41
1.87475 0.871153 9.40381 46 20 15
-1.05033 1.04996 6.09855 88 91 66
1.56023 1.09396 7.87984 85 67 48
-3.90237 -3.67603 9.22683 76 75 42
-3.56831 -1.70601 11.1358 151 148 94
2.78788 -5.04298 10.1881 73 85 38
3.39499 -1.50517 9.87884 77 79 40
3.44101 -1.40273 9.90563 80 84 43
2.31052 1.11181 8.97893 73 38 28
-1.55466 2.55111 5.00077 128 114 100
4.21461 -3.1662 7.6557 58 62 28
1.95386 0.993815 8.74568 72 44 26
1.6935 3.9867 10.9073 79 42 38
-1.3876 1.24942 5.97269 130 121 98
-1.54155 2.524 5.14664 107 98 76
3.78277 -3.0849 8.07704 118 120 82
0.134083 4.41668 10.31 82 40 32
3.7625 -3.07288 8.01269 154 160 114
-0.0188311 1.26642 8.46294 66 39 30
-4.19128 -4.29926 9.13287 80 84 47
3.03546 -0.925411 10.1907 46 40 12
2.33725 -1.85799 8.47375 62 72 52
-3.23819 -1.64863 11.0334 106 105 54
2.97301 -1.10462 10.1839 94 101 60
2.9275 -1.00308 10.2128 127 131 92
1.78671 -0.289369 10.4947 32 16 2
-1.04942 1.06763 8.38322 73 54 42
1.38256 4.0235 10.6969 98 70 67
0.118372 3.36992 9.45504 53 18 12
-1.47518 2.4965 5.03014 82 73 48
0.150938 3.72562 9.69458 58 21 16
-4.11364 -4.00311 8.9694 41 42 18
-0.571567 -1.56839 8.89607 154 155 105
3.43875 -1.39424 9.89816 80 81 40
-0.5 0.971472 9.38064 55 36 24
2.20909 2.29466 11.9168 47 24 16
1.6825 3.98538 10.9145 73 36 34
2.39772 0.597391 9.01401 127 84 68
1.84008 0.912375 9.06799 40 14 7
1.76532 0.960147 8.82812 46 25 12
-1.47539 2.49112 5.02652 104 95 72
1.08039 4.29555 10.4925 117 91 90
-1.73022 -2.91949 6.82262 88 90 44
-2.72707 -1.1233 10.5669 146 139 88
2.90707 -1.00547 10.0686 150 160 114
-1.15921 2.0479 8.9938 25 4 0
-1.41698 2.45639 4.9928 84 78 50
2.11864 -0.535836 10.4028 146 153 112
-1.5524 0.230159 7.44561 136 124 74
-0.717944 3.9929 10.5266 106 67 60
-0.0947327 3.89528 9.93113 49 13 4
0.239821 -0.102968 9.85432 88 91 87
0.140468 -0.0206257 10.0803 112 112 112
-0.643137 2.33158 8.6108 28 8 4
-1.95011 2.48784 5.01947 76 72 52
-1.34573 -4.50717 11.4132 106 112 70
4.20202 -3.15091 7.6346 44 45 12
1.15913 -1.98208 4.64299 120 118 81
0.16735 -2.15624 8.6367 120 124 102
-2.27352 -1.29242 10.8135 100 100 50
0.660765 -1.0394 7.38335 86 96 84
-0.883435 -0.684638 8.17874 150 150 104
3.14804 -0.951006 10.0641 130 120 86
-0.461075 -0.280497 7.32213 112 118 84
2.23052 0.526582 9.02574 58 24 8
-1.04562 1.26253 8.36771 108 58 28
-0.742189 1.40594 8.25268 89 37 16
2.18369 2.45289 10.3706 30 12 10
-1.38661 -4.09174 10.9681 90 96 64
-1.77398 -2.25409 9.82168 104 108 65
-0.867929 -0.625559 7.95899 40 44 13
-3.19316 0.235307 12.0698 109 108 70
0.017473 1.21793 8.29387 72 43 33
-0.709931 1.39133 8.15358 134 83 56
1.07551 1.27723 7.91789 132 105 92
-1.40229 1.25881 6.00677 116 108 81
1.98856 1.31603 8.70507 48 26 20
2.55907 1.7613 11.0157 118 106 88
-1.01994 2.33011 9.25139 112 78 68
0.0598643 3.89309 10.0069 106 78 74
-2.30772 -5.80926 12.7382 88 92 42
-3.04495 -3.38212 9.45312 99 98 52
-0.874496 -0.625505 7.95383 36 40 12
-1.00797 1.10839 8.36575 68 44 34
-0.745717 1.40173 8.24845 129 78 52
1.98014 1.31973 8.84373 56 33 28
-1.51767 1.51402 5.79218 136 126 104
0.893092 2.64531 8.9863 120 95 90
-1.99854 2.57999 5.01029 124 112 98
4.30839 -3.28798 7.56183 91 97 54
-2.7726 -3.14934 9.46179 97 98 52
-2.24913 -2.68909 9.63407 90 93 50
-1.17036 -1.59287 9.72579 76 80 48
-0.841395 -0.614075 7.80291 36 40 14
-2.4247 -0.647237 9.77567 125 112 72
-0.921681 -0.561551 7.97301 93 94 63
0.117663 0.944333 7.93553 52 34 28
-1.5088 1.51359 5.79478 136 128 106
-0.0926767 4.4485 10.2538 96 49 29
-1.98708 -2.44593 9.68257 86 87 48
-0.91165 -0.723074 8.23168 152 150 98
1.72288 1.02759 8.72904 119 87 70
-1.28843 1.51636 5.66211 87 86 62
0.92707 1.71179 8.50028 80 46 42
0.880019 2.3373 8.83062 92 74 70
-1.59563 -2.0551 9.98915 78 82 43
-1.28126 -1.87714 9.51264 154 152 105
-0.442928 -0.335971 7.7704 47 56 29
1.92876 1.31805 8.62567 108 74 69
-1.02463 2.31713 9.22825 100 64 55
-0.695762 3.37245 9.65273 99 63 56
0.919594 1.21848 8.34275 68 42 23
1.13069 1.39847 7.76603 150 124 120
-0.751226 3.43031 9.93974 124 92 86
1.73781 4.06161 11.2207 112 83 76
-0.882206 -0.737713 8.13188 148 147 94
-0.934597 -0.375218 7.33175 44 28 9
0.245936 0.30091 9.94291 113 114 108
-0.493627 0.938559 8.27366 10 6 5
0.967384 1.1957 8.07849 72 47 30
-1.36821 -4.07729 10.9407 97 104 74
-2.76203 -3.14826 9.46448 86 88 46
-1.31084 -3.23669 10.4695 106 111 66
1.11629 -1.97777 4.77056 156 155 119
-0.633086 -2.35569 9.84702 108 114 79
0.644916 -2.28763 10.7174 61 69 36
0.902508 -1.55632 6.05323 88 92 87
0.615949 -2.24872 10.7509 148 156 126
-1.52968 -2.03976 9.88175 94 98 54
0.609842 -2.17189 10.7452 138 144 117
-0.45294 -1.76837 9.81667 112 119 79
-2.93137 -1.56389 10.9997 92 90 44
1.50791 -1.27841 8.91882 86 89 76
0.675057 -0.88007 8.20245 108 117 92
0.652221 -0.845492 8.26877 143 150 122
-2.65625 -0.866992 10.9274 146 131 90
2.35085 -0.60371 9.72106 116 130 87
-1.90723 -0.152668 8.00904 140 134 82
-1.40272 0.0144239 7.85716 74 78 58
-1.84506 0.179031 7.95682 118 113 78
-0.14657 0.217191 9.35877 68 72 58
-0.821653 0.544543 6.63355 93 102 74
-0.894735 0.783034 6.33886 114 120 87
0.127087 0.859349 8.24149 42 27 18
0.10354 0.935026 7.991 52 34 28
1.4667 0.93973 8.3456 32 26 16
0.0420338 1.21263 8.19934 86 60 50
0.924687 1.21271 8.26661 54 29 12
1.60221 1.18869 8.20185 135 119 106
1.03607 1.34485 8.11797 64 36 24
2.49151 1.82979 10.8649 62 41 22
-1.05642 2.02329 8.99351 106 70 63
-1.33999 2.2165 9.41683 122 78 64
-1.60817 2.43179 9.86591 140 113 92
2.16497 2.3575 10.274 47 28 22
-0.844898 2.86181 9.45533 130 103 92
0.885087 2.85723 8.96016 126 105 103
1.77179 4.00724 11.1634 110 78 72
1.3475 3.93974 10.2828 56 25 22
-3.30664 -3.58065 9.44166 60 60 28
-3.03982 -3.37815 9.44741 94 96 49
1.11729 -1.96014 4.72399 153 154 116
-0.592384 -2.31379 9.6454 104 112 74
0.817083 -1.45218 6.48667 96 102 96
0.643915 -1.06993 7.48014 86 93 85
0.574836 -0.88014 7.70475 78 88 77
0.267033 -0.819632 7.65723 70 73 58
-1.76235 -0.00546874 7.79125 76 79 56
-1.42569 0.00729495 7.89745 70 73 53
2.41464 -0.0791177 10.8527 50 28 10
2.40311 -0.0389051 11.1857 114 98 78
1.25054 0.737692 8.91224 44 41 29
2.30992 1.10644 9.08314 64 30 20
2.39242 1.17806 9.2448 108 78 68
1.1666 1.42543 8.16043 148 132 125
-1.44708 2.85496 10.1184 144 118 98
-2.8118 -3.18234 9.58015 104 104 60
0.818827 -1.45613 6.50029 90 95 89
-1.24755 -1.81069 9.69708 99 104 61
1.27076 -1.04637 8.89069 62 66 52
-1.97781 -0.16472 8.22174 144 136 83
-1.50535 -0.165097 8.8545 148 146 91
-1.71071 0.00392136 7.62693 72 74 50
-1.57876 0.122901 8.05882 69 66 48
-1.79287 0.190932 7.8078 114 106 70
0.106522 0.735222 8.42169 88 75 66
-0.947531 0.847034 6.34448 97 100 73
2.21596 1.14951 9.18571 58 27 18
2.64487 1.29039 11.0048 84 70 54
-1.21073 1.41293 8.58446 99 50 28
1.61047 1.19895 8.2821 138 120 108
1.16751 1.40071 7.98764 150 132 126
-1.05282 1.72285 8.82534 57 20 12
-1.48698 2.89327 10.2829 142 117 97
1.67661 2.81543 9.17025 81 50 43
1.09737 -1.89457 4.62484 136 138 96
0.822316 -1.44297 6.39837 84 88 82
0.643434 -1.05518 7.45879 84 92 84
3.4084 -1.36114 9.63955 86 86 50
0.102583 0.88561 8.45228 15 6 0
1.84523 0.936266 8.73005 108 88 78
1.75157 1.03233 8.73011 120 86 67
-1.13108 1.4482 8.48607 122 96 86
-1.01593 1.41899 8.36025 78 30 18
1.15209 1.412 8.04304 152 132 127
-0.976378 1.70179 8.51901 38 9 2
1.87221 1.60331 9.00022 100 78 74
2.47964 1.84945 10.7633 52 28 11
1.01666 1.68896 8.26974 44 20 16
-1.7387 2.49752 10.3287 140 115 92
0.848618 2.07295 8.65983 36 12 8
-0.993778 2.31301 9.15119 113 82 72
2.31042 2.2899 10.8597 48 26 16
2.38536 2.52975 11.1847 92 72 48
0.877837 2.96334 9.06822 113 96 94
2.17105 2.72236 6.64712 80 45 26
-3.05483 -3.3189 9.05046 46 50 22
-1.81739 -2.27407 9.93304 96 100 58
-1.43367 -1.96332 9.45092 108 112 70
-0.106375 -0.833427 8.39404 91 88 48
2.39294 -0.122749 11.3118 64 44 28
-0.693129 0.233534 6.87252 78 88 52
0.079296 0.953811 8.14481 42 24 18
-0.176182 1.02588 8.18176 23 12 8
2.65262 1.16577 11.2687 99 85 68
2.62104 1.30978 11.0395 86 68 49
-1.07943 1.45207 8.60991 75 28 16
-1.10732 1.52283 8.73492 40 15 8
1.97882 1.31635 8.72493 78 56 51
-1.13089 1.70153 8.79366 96 56 46
2.25901 1.75226 10.0176 71 50 42
-1.57229 2.0995 9.393 147 128 103
-0.985589 2.46455 9.52074 26 8 6
-1.51834 2.88836 10.3179 148 125 105
2.24658 2.74489 10.8475 92 70 56
-1.63537 3.27071 10.9257 134 108 86
-0.853051 2.94066 9.55561 98 70 65
0.88738 3.10638 9.63068 40 14 11
-1.62398 2.58392 5.281 128 116 98
4.29163 -3.29768 7.69565 156 161 111
-3.05212 -3.37901 9.41707 99 102 55
-1.78019 -2.23474 9.76417 72 78 41
1.08903 -1.76992 6.67397 110 119 82
-1.21779 -1.767 9.46622 96 101 62
-0.985159 0.821345 6.50659 84 88 61
2.04345 0.878073 9.18897 97 54 24
0.02221 1.03779 7.57031 104 70 60
1.8645 1.58531 8.87534 84 59 54
2.17464 2.07487 10.1184 36 16 11
-1.81215 2.74191 10.7221 139 118 96
-1.38761 2.7981 9.72973 144 128 106
0.921852 2.73341 9.42891 42 24 20
-1.47616 3.13662 10.3014 130 105 82
0.864843 2.96076 9.15109 102 84 81
-1.71176 -2.20168 9.50847 91 98 55
-1.26101 -1.78827 9.57882 82 88 51
1.07498 -1.42411 9.48052 82 89 55
-2.44281 -0.310744 9.51849 150 142 87
-1.42087 0.435211 7.05517 118 102 63
-1.88445 0.705604 7.69321 131 109 82
2.35061 0.624161 8.85048 152 107 90
2.22706 0.787654 8.8558 116 76 48
0.0786005 0.924457 8.27285 46 32 26
1.78386 0.925367 8.64024 69 44 30
1.93717 0.996023 8.70712 87 62 46
2.19433 1.0711 9.25356 141 106 88
-1.32537 1.65882 6.02373 154 144 121
-0.35671 2.25087 8.55363 32 6 0
0.043005 2.19722 8.4078 64 32 26
-0.617071 2.35623 8.58533 20 6 4
2.1033 2.44823 10.1422 41 22 16
1.33701 4.12205 10.7621 84 58 56
1.10971 -1.44829 9.32144 112 118 80
-2.57571 -0.788403 10.7102 143 132 83
-1.52006 -0.31315 8.93173 148 143 89
2.35611 -0.0125376 9.52486 80 60 46
0.414199 0.375014 11.1943 10 10 4
-1.21009 1.49462 5.87924 61 61 35
2.16827 1.98958 9.41885 46 24 20
-1.61021 2.93128 10.5128 142 126 103
2.25235 2.12354 7.43482 79 48 28
0.776339 3.95117 10.1483 112 83 80
4.08743 -3.14095 7.73154 158 160 109
4.07748 -3.15045 7.80011 139 138 96
-1.23883 -3.77447 10.8006 88 96 62
3.43152 -2.89322 7.9327 126 130 85
2.77532 -2.34706 8.15184 90 96 68
2.67406 -2.12758 8.37645 72 80 66
1.99277 1.25413 8.52351 152 127 118
-1.1457 1.48638 8.58557 127 102 95
4.14191 -3.14965 7.5959 158 160 111
4.11061 -3.14687 7.64699 148 150 100
-0.63766 -3.23328 10.4802 95 106 56
3.02156 -2.52659 8.05256 76 84 55
0.102762 0.798495 8.58793 99 79 68
4.19129 -3.14035 7.54944 56 58 23
3.01484 -2.50409 7.92512 73 80 52
1.92275 -1.62595 8.42284 71 76 58
-3.46193 -1.70867 11.0483 124 122 68
3.04225 -2.54909 8.12343 76 83 55
0.100548 -2.51181 8.7246 132 138 89
2.57008 -0.166 10.868 118 98 72
2.13471 1.24543 9.11973 82 54 48
1.311 1.41835 7.31001 76 64 46
2.70557 -4.85822 9.66957 72 86 46
1.27597 -1.05416 8.7857 50 56 40
1.77837 1.38768 7.14953 82 62 44
-1.14813 2.07363 9.06193 24 8 3
-2.5368 -0.74195 10.229 94 76 48
2.90783 -0.167541 9.23964 134 100 83
2.27181 -0.119507 9.11027 96 80 60
-4.35266 -4.45729 9.046 87 88 46
-1.88413 -4.77768 11.5854 100 99 57
3.79023 -3.08983 8.09412 89 92 50
2.54357 -2.16149 8.25509 68 76 52
-1.87855 -1.96735 9.50253 66 69 45
1.91949 -1.65676 8.61675 76 81 60
1.90902 -1.63414 8.5666 82 88 66
0.587279 -0.891753 7.77203 74 84 70
2.97278 -1.10989 10.1741 102 108 66
3.18799 -1.01554 10.2515 144 148 110
-0.363666 1.02073 8.28778 34 8 4
-1.30431 1.01575 6.218 151 143 118
2.64303 1.30246 10.9372 102 92 78
1.98291 1.18905 8.65007 82 57 47
2.00294 1.29871 8.59006 74 54 50
1.95712 1.33605 8.50963 134 104 100
1.82621 1.90885 9.2048 120 100 97
2.37616 2.27888 11.2152 51 28 16
1.74445 2.18718 9.36256 120 98 93
1.89123 2.46073 9.76187 106 76 73
-0.852944 2.87761 9.51291 124 90 80
2.13123 2.85106 10.6978 105 84 80
0.860061 3.0327 9.28806 114 96 92
2.02858 3.37085 11.021 98 74 70
1.67582 4.00736 10.9312 70 40 34
1.7387 4.12737 11.2094 76 48 41
1.32383 4.27047 10.7484 68 50 46
0.153065 4.27642 10.1777 57 18 10
1.18166 4.28961 10.5513 60 33 30
0.661297 4.52524 10.5392 70 30 19
0.487497 4.50182 10.2072 106 69 58
-5.06803 -4.9893 9.34806 98 93 48
-3.98782 -3.86384 9.05239 47 47 24
2.96614 -1.11676 10.1548 140 151 106
-2.51676 -0.837858 10.3791 88 74 42
-0.139394 0.219187 9.30351 57 61 47
2.63191 1.18405 10.8689 68 54 42
2.31643 1.12047 8.94113 85 52 38
-1.16716 1.29748 5.89624 100 102 80
-1.09876 1.39597 5.88652 104 108 86
2.54893 1.75681 11.3163 58 47 31
2.55095 1.81497 11.3119 93 82 68
1.79567 1.71009 9.12231 25 3 0
2.26023 2.01053 10.3402 98 74 64
1.87203 1.87087 8.95936 76 55 50
1.72414 1.96735 9.28422 34 11 10
2.21046 2.07073 10.3017 37 20 12
2.19045 2.38719 10.537 76 62 57
-0.837921 2.95338 9.57609 115 90 78
0.141072 3.35892 9.37392 51 12 3
1.33836 4.23961 10.6722 79 61 58
4.21923 -3.15048 7.61911 45 49 16
2.11213 -1.8327 8.546 70 75 54
-1.51162 -1.6427 9.50255 78 79 52
0.544974 -1.8622 10.7223 119 125 82
3.37987 -1.49101 9.86766 72 70 32
-2.49222 -0.831532 10.3449 70 56 27
1.37013 0.831983 8.37598 54 54 42
-1.057 1.11867 8.57294 47 28 17
1.44382 0.917757 8.20875 15 12 3
-1.04142 1.05492 6.10355 92 95 70
1.97606 1.30933 8.72536 124 100 95
1.89869 1.35175 8.94037 92 64 59
1.12857 1.33552 7.64466 110 78 62
-0.00497924 1.94135 8.52828 100 70 66
1.82087 1.88927 9.15242 100 75 72
2.12188 2.45166 10.5683 38 22 19
-0.878497 2.90069 9.59937 116 78 67
2.10581 2.87187 10.815 87 64 60
2.00874 3.39137 11.1461 95 70 64
-1.54146 2.51862 5.13894 102 92 68
1.87044 3.94748 11.434 94 65 58
0.101477 3.78702 9.86381 62 28 22
0.0214284 4.53061 10.371 100 58 43
-4.8689 -4.81586 8.9785 82 79 38
-3.98076 -4.13789 9.21143 124 122 78
2.12677 -1.80805 8.43124 72 76 54
-3.95451 -1.56009 11.1599 56 44 8
-2.72786 -1.13444 10.672 150 142 96
-1.07433 0.840666 8.80019 22 10 4
0.156266 0.999714 7.81435 18 6 0
-1.37863 1.4854 9.05517 107 60 36
2.24154 1.19542 8.96844 100 71 64
2.10745 1.239 8.98883 34 14 6
-1.20465 1.43822 6.04862 136 138 116
1.86443 1.616 9.03485 113 92 92
1.80914 1.69581 9.00043 24 2 0
2.20308 2.06301 10.2425 33 15 10
-0.949116 2.30329 9.0636 108 72 61
2.10797 2.85352 10.7243 80 57 53
1.88246 3.92267 11.3008 94 68 60
0.0995311 4.30484 10.1513 117 80 68
0.836989 4.40318 10.4894 72 35 30
-4.85419 -4.82123 8.99962 74 70 32
4.23396 -3.18356 7.68083 40 47 15
2.09794 1.23928 9.00596 96 74 66
-1.22837 1.46187 6.05311 100 97 76
1.85489 1.6094 9.051 64 36 33
2.2618 1.75575 10.069 22 8 4
0.870106 1.76297 8.44245 30 9 4
-0.0038458 1.95523 8.5291 89 61 56
-0.867403 2.33691 9.07716 41 14 6
2.20472 2.33155 10.3795 62 48 42
0.0165071 4.37116 10.3286 110 68 55
2.45118 1.86127 10.7806 46 24 15
-1.11814 2.03152 8.89809 46 13 3
-0.416926 2.27374 8.7984 36 6 1
-0.669795 2.44309 9.04937 28 6 0
0.113 3.73427 9.58132 116 80 72
0.0457616 4.49043 10.1592 115 70 55
-2.59522 -0.819645 10.6483 153 142 89
-1.22051 1.32352 5.96853 90 90 68
2.21185 1.79164 10.2223 28 10 6
-2.56075 -0.860731 10.6612 104 88 52
-0.274235 0.396296 11.2488 93 92 85
-1.22602 0.9345 8.52426 35 28 15
1.87894 1.2235 8.12082 90 56 48
2.20251 3.08958 11.6593 79 44 30
-3.28848 -3.57307 9.4012 83 80 38
-3.37178 -3.41694 9.1936 79 82 55
3.82802 -3.12925 8.19427 148 150 109
2.31933 1.13122 8.99397 99 62 52
1.59072 1.19433 7.80779 120 102 86
2.55239 1.75167 11.284 55 46 32
1.48467 3.54461 10.125 114 90 84
1.64669 3.97104 10.777 112 85 81
1.90541 -1.63741 8.57652 74 79 59
1.60175 1.19897 7.77115 120 102 86
1.13363 1.24443 7.60435 125 97 75
-1.48468 1.50935 5.73206 132 124 106
1.80467 1.90776 9.20619 108 83 80
0.059767 2.22907 8.58681 116 88 82
-0.624513 3.97836 10.3076 111 76 69
1.78054 4.00612 11.1225 113 86 80
-1.53419 -4.76798 11.6866 88 92 58
-1.85431 -1.9619 9.44192 58 62 38
1.6081 1.19495 7.77318 105 90 70
1.19992 1.39645 7.59451 142 113 98
1.88076 1.58848 8.99973 107 82 79
0.69318 -2.58901 10.7551 124 128 87
1.43017 0.879931 8.17309 23 22 10
-1.2749 0.963191 6.22407 142 132 108
-1.09146 1.1422 8.69775 46 25 13
-0.666219 3.99133 10.3975 118 82 74
0.0058558 4.53141 10.3555 99 56 42
0.106042 0.975905 7.90132 42 25 18
2.54757 1.44136 10.8514 82 65 50
-0.781477 3.42832 9.97362 100 60 52
2.03491 3.33499 10.9155 80 51 46
1.90323 3.88871 11.2193 85 56 50
-4.86985 -4.82544 8.99067 90 88 48
0.101665 0.994761 7.9259 41 26 18
2.22076 3.12723 11.7426 79 49 33
0.139743 4.40973 10.3177 78 34 25
0.0629761 1.00651 8.05606 23 11 6
1.15908 1.34442 7.44541 159 122 104
-0.681506 2.43281 8.99219 31 8 2
-0.0189334 4.52502 10.3344 113 68 54
3.25231 -2.65249 8.05786 58 61 36
-1.94196 2.50309 4.98402 144 134 117
-3.55874 -3.71599 9.18077 87 88 66
-2.76622 -3.14982 9.4966 98 96 50
0.882359 -1.51673 6.16974 88 90 84
-1.30781 -1.45311 9.52348 73 77 48
3.38479 -1.50096 9.90393 70 69 30
0.575079 -1.07536 7.29321 84 90 76
-0.743061 -0.838936 8.47135 99 102 64
-2.51947 -0.818323 10.3927 129 117 80
2.39607 1.18163 9.20872 94 64 54
1.81134 1.70555 9.0704 28 7 5
-0.643614 4.0125 10.3788 116 86 80
0.803125 3.89674 9.92899 122 97 93
0.185655 4.46622 10.1695 152 116 104
-1.76394 -1.13995 9.77744 122 120 68
0.572656 -1.07993 7.28564 74 78 66
0.64959 -1.05877 7.43492 86 90 80
-0.888118 -0.771465 8.36543 60 59 22
-1.66605 1.08234 9.83445 104 80 62
2.41484 1.23154 9.3151 114 86 75
1.97188 1.31944 8.87003 70 48 44
2.28529 1.7226 10.0151 30 12 7
-1.69993 2.23574 9.9627 138 113 92
1.87097 2.47307 9.83729 102 73 70
0.0028615 2.59286 8.83949 56 20 8
-3.31895 -3.58475 9.43683 84 80 44
-3.41591 -3.32346 9.14153 82 80 58
-3.45479 -3.26679 9.19558 58 57 34
3.02803 -2.52826 8.05471 72 77 52
2.77839 -2.33664 8.12056 69 72 48
-1.45463 -1.86686 9.63661 86 86 56
3.43516 -1.37379 9.87512 88 88 50
-0.761538 -0.778246 8.12901 112 110 70
2.21945 1.2086 9.07353 98 69 60
-1.45831 1.49957 5.69171 130 120 100
-1.02324 2.03443 8.75282 30 8 1
-1.57644 2.54629 5.06874 142 129 114
0.101544 3.83193 9.77688 120 94 92
1.77594 3.99868 11.0809 112 86 78
-3.63454 -3.55394 9.04327 90 90 67
-3.28239 -3.56151 9.37724 88 84 44
3.41394 -1.37907 9.9358 88 85 48
0.168953 0.727949 8.28052 59 48 38
-1.50428 1.52219 5.7536 131 120 100
1.03327 1.74944 8.40744 21 8 4
-1.68814 2.38644 10.0272 108 80 58
-1.76826 2.58264 10.4333 149 124 102
0.939759 2.29737 8.69289 122 104 100
0.881048 2.65571 9.05889 124 98 92
-2.75897 -3.12082 9.39533 52 58 24
-1.14965 -1.2894 9.64332 88 86 60
-1.3635 1.52074 9.20329 96 61 46
-1.8079 1.8891 9.81137 157 138 116
-1.26299 1.51641 5.59878 93 92 71
0.961749 1.71436 8.3948 104 80 75
1.05365 1.73244 8.37241 20 10 5
2.32582 2.27305 11.1334 45 22 13
0.970866 2.06442 8.73396 27 11 8
0.811597 2.36602 8.83608 44 16 13
0.866778 2.97818 9.21079 104 82 80
0.782735 3.97744 10.0351 120 104 102
-2.96733 -3.32258 9.26086 72 78 34
-1.39513 -2.14116 8.6619 134 134 87
3.40296 -1.39711 10.0285 88 82 47
2.29035 1.70334 9.72602 24 10 6
0.817577 1.78507 8.52887 26 7 2
-1.72392 2.41211 10.0957 136 110 88
-0.888162 2.91371 9.5825 80 48 40
-0.788915 4.3478 10.6589 101 72 64
3.3467 -1.46024 9.89357 86 84 44
-1.18861 1.49237 5.9062 144 138 117
-1.22597 2.09126 9.18765 42 16 8
-0.938377 2.43584 9.33548 24 9 5
-1.39331 2.43396 5.02036 86 81 52
-0.0884944 3.89917 9.89597 46 11 4
-1.59692 -2.85515 6.6258 73 74 26
-2.79129 -1.12268 10.5872 149 143 84
-1.46373 3.53515 10.8922 140 116 96
-2.29898 -5.86838 12.9215 110 113 66
-1.18589 -4.2133 11.2766 110 116 70
-1.40118 -4.10152 11.0508 95 99 67
-1.17705 -3.68939 10.6067 96 106 71
1.17 -1.9656 4.60353 108 104 66
1.02914 -1.94123 4.98866 142 139 100
0.953807 -1.91703 5.16636 138 136 100
0.909102 -1.84994 5.22227 143 142 109
0.912508 -1.43281 6.64217 89 99 89
-3.24007 -1.64478 11.025 101 100 47
-0.942646 -1.2644 9.56014 70 74 42
-1.76832 0.179019 7.78619 116 83 60
-0.876585 0.838882 6.18231 96 100 70
-1.08316 1.73379 8.73936 113 79 72
0.98638 1.78098 8.54168 26 7 2
-1.60148 2.18497 9.70356 141 114 91
0.952472 1.76167 8.23953 31 7 4
1.73526 1.97663 9.31488 26 6 4
2.38225 2.17099 11.055 110 92 79
0.0720688 2.20699 8.52078 112 84 77
2.29762 2.69527 11.1054 100 76 58
-1.38469 2.88579 10.0961 130 98 82
2.12668 2.87256 10.6688 112 91 88
0.869182 2.9015 9.1797 122 104 99
0.892306 3.36158 9.32504 122 94 92
0.0816358 3.83928 9.85259 121 97 94
-1.39291 -4.54392 11.5293 98 104 59
-1.22837 -3.73811 10.7553 94 104 70
1.19501 -2.00921 4.56529 152 150 104
-2.02362 -2.46704 9.77833 105 103 61
0.843423 -1.45473 6.41903 90 93 87
-3.25127 -1.64989 11.0606 116 116 61
-1.08781 -1.55318 9.53676 88 89 56
-0.652996 -0.920026 8.78404 72 74 38
0.0895338 0.957597 7.95877 62 38 31
1.60091 1.2943 7.9721 142 127 112
-1.76056 1.8785 9.7464 156 136 114
0.870777 2.09036 8.67078 37 12 8
2.30797 2.68945 11.0852 106 86 69
-0.845588 2.86203 9.47063 103 66 54
-0.803141 2.90805 9.5853 54 20 12
2.13913 2.82101 10.6245 102 76 72
2.1158 2.87277 10.6924 90 70 68
0.922342 2.87133 9.19195 58 28 22
0.896485 2.88008 9.08849 122 104 98
-1.18822 -4.21489 11.2611 100 105 64
0.867239 -1.96129 5.3116 142 148 100
0.902208 -1.95366 5.34367 120 119 82
0.907415 -1.85848 5.20946 130 132 95
-0.537367 -1.50852 8.99137 155 152 106
-1.28607 -1.43344 9.47905 72 75 46
0.672137 -1.04883 7.32015 86 91 81
-1.16468 1.32194 5.84533 98 96 74
-1.12815 1.41257 5.89746 110 110 87
1.03693 1.5189 8.31887 34 8 2
1.7103 1.98839 9.38774 29 8 6
-0.910492 2.27731 8.92931 122 86 76
0.987656 2.05369 8.63003 24 8 4
2.29227 2.73474 11.3286 117 98 82
0.911321 2.63709 8.94175 126 103 97
-1.43069 3.49647 10.8751 138 111 93
0.127422 3.37879 9.45377 52 13 3
-1.51767 -4.74578 11.6395 78 86 52
-1.476 -4.65411 11.6223 122 127 88
-1.46703 -4.1614 11.187 87 92 60
-1.24005 -3.76344 10.829 92 102 67
1.12805 -1.94093 4.70161 153 152 106
0.996728 -1.92502 5.03112 153 154 106
-2.20593 -2.66255 9.48725 108 108 64
-2.01748 -2.45909 9.74907 90 90 50
0.532017 -1.86914 10.7571 136 143 98
-0.569722 -1.51973 9.02839 152 150 100
-0.337342 -0.934953 8.79338 48 56 16
-1.77609 0.208127 7.51842 141 128 89
-1.43286 1.25796 6.07032 136 127 103
1.03711 1.27407 7.77397 132 99 86
1.95364 1.33884 8.98877 62 42 38
1.20006 1.38169 7.63009 146 122 117
-0.407619 2.27607 8.75913 44 8 3
-0.758195 2.36716 8.82788 22 4 2
-0.859766 2.8882 9.52009 118 86 78
0.931601 2.87379 9.13712 55 27 23
2.06335 3.25613 10.5455 76 48 42
-1.43801 2.46561 5.07152 85 79 48
-1.68658 2.58331 5.34006 115 102 84
1.05821 -1.93873 4.83288 134 135 86
0.899028 -1.87666 5.23501 132 134 97
-1.21048 -1.60635 9.83447 85 86 54
0.100134 0.786886 8.48901 90 73 62
-1.0759 1.0647 6.15499 87 86 57
2.21119 1.21014 9.32451 100 70 61
2.23266 0.419321 0.256434 118 98 67
1.77166 1.91634 9.37803 94 71 69
0.894321 2.03936 8.7259 88 58 54
-1.08712 2.21467 8.48036 144 124 102
2.24982 2.35811 10.6035 33 17 12
-0.643256 2.4196 8.96278 29 6 1
0.882356 2.33465 8.81157 68 40 39
2.28856 2.69715 11.1416 88 62 42
-0.868588 2.89344 9.53172 104 70 62
2.26341 3.05038 11.294 80 50 35
-1.39689 2.4428 5.03315 75 70 39
-0.653959 4.23615 10.2439 108 78 71
-3.28229 -3.56198 9.32599 92 89 56
-0.377276 -0.962061 8.82528 46 55 16
-1.39808 0.247861 7.39738 152 141 104
1.95171 1.19651 8.74221 105 80 74
1.97691 1.33198 8.90033 35 15 11
-1.1319 1.4378 5.85958 110 106 84
0.965227 1.68522 8.32442 82 49 44
-1.49332 2.96373 10.3477 146 128 107
0.925968 2.90157 8.89722 104 83 80
-2.57562 -3.03658 9.04241 104 106 62
3.20074 -2.64792 7.99171 72 72 44
2.32163 2.23015 10.392 32 14 8
2.36331 2.51725 11.1774 96 62 35
2.29302 2.69275 11.093 85 58 40
-1.55474 3.23836 10.693 116 80 58
2.28774 2.94307 10.7253 80 46 31
-1.17473 3.3349 10.0399 141 119 100
-1.41068 3.75677 10.9395 136 113 97
0.856845 3.39178 9.33054 72 36 33
-3.95242 -1.59217 11.1674 103 96 50
-4.3245 -1.44849 11.37 106 88 38
-0.310287 0.940454 8.18153 74 48 40
2.32499 2.62272 10.6565 86 56 38
-0.83659 4.35331 10.7784 130 102 94
2.77672 -2.38226 8.32802 86 90 67
0.821675 -1.26662 7.08787 91 102 87
1.72846 -1.4726 8.73661 74 80 58
1.00482 -1.51618 10.42 146 150 116
-1.10217 -1.26645 9.6075 87 88 60
-2.34519 0.52799 9.47415 88 52 31
-0.906028 0.778121 6.35827 110 115 82
-1.17989 1.48879 8.69929 108 79 70
-1.45317 1.31307 6.09363 140 134 104
-1.21626 1.34025 5.9816 106 106 83
2.33628 1.43077 9.45469 34 14 8
-1.17921 1.42478 6.02053 139 142 122
-1.23316 1.50506 5.57295 105 105 84
0.939417 2.09977 8.81092 32 12 8
2.54167 -2.17695 8.29862 68 75 50
-1.85341 -1.95705 9.43876 66 70 46
1.9583 -1.30271 6.90748 67 73 53
-1.36066 1.02315 8.63716 76 62 40
-1.38929 1.08404 8.46275 110 80 50
2.2667 1.25506 9.37223 71 41 32
-1.28728 1.5183 5.68915 101 101 79
0.300698 3.10391 9.16686 106 56 46
-1.7717 2.65165 5.59998 93 81 60
2.33321 -2.005 8.39881 58 64 38
2.12653 -1.43431 6.74653 72 76 56
1.01966 -1.53492 10.4152 156 161 123
1.80803 -1.1031 6.71838 54 58 40
2.11933 1.25249 9.11823 50 23 16
-1.87749 2.5712 11.7135 36 8 0
-0.895679 2.45667 9.22788 20 4 2
-1.63587 2.0368 5.38843 84 88 64
-1.10456 1.09268 8.65314 68 39 29
1.77079 4.00441 11.1236 114 84 78
-1.57045 2.53578 5.25711 94 86 58
-0.267479 0.986764 8.49751 14 8 4
-1.3848 1.65134 6.22808 158 150 131
-1.40201 2.46085 4.91977 90 80 56
-1.34027 1.53818 5.73489 77 76 50
-0.307656 0.969423 8.66641 14 8 4
-1.00044 1.26083 7.27807 96 54 28
0.105591 3.82821 9.75775 112 83 81
-0.784466 0.571949 6.78532 27 30 14
0.935213 2.67604 9.03515 42 20 19
-0.758829 3.44455 9.97007 122 90 84
4.17341 -3.07611 7.37596 140 140 100
3.92214 -3.05353 7.80415 110 112 72
0.891062 -1.77628 5.27598 102 97 60
0.570273 -2.64689 11.1466 102 104 63
0.607034 -1.63936 5.96081 137 132 96
0.596181 -1.6081 5.96493 104 100 58
2.12626 -1.80193 8.40774 86 90 70
-1.53724 -1.64698 9.57275 78 81 56
0.507546 -1.88781 10.8625 92 96 56
-3.51578 -1.70093 11.1201 114 111 57
-3.4713 -1.69365 11.4355 122 118 64
1.53636 -1.29715 8.81022 71 75 60
0.765817 -1.17761 8.29119 99 104 68
1.52395 -1.25264 8.72022 82 85 70
1.3048 -1.0249 8.76605 76 80 63
-2.75854 -0.88715 11.1242 115 104 64
-2.6365 -0.835264 10.5817 112 100 58
-0.0350033 -0.784037 8.12228 90 88 54
-2.57508 -0.669012 10.0938 134 121 74
-0.979574 -0.368913 7.72426 113 110 60
0.549766 -0.703472 12.6688 60 42 23
-2.32596 0.316603 10.9166 145 129 113
-2.14532 0.462795 10.4345 128 109 90
-3.44847 0.614286 6.033 78 75 55
-2.06711 0.629871 9.96812 150 135 114
-1.13984 0.665624 6.44615 117 111 86
-0.80516 0.750153 6.53167 160 155 134
-0.854318 0.775535 6.23925 108 112 85
-0.135835 0.805691 8.15047 40 30 26
-0.742125 0.80982 5.98935 106 108 80
-0.942512 1.01202 5.98514 102 108 86
1.51985 0.936018 7.91781 60 54 43
-1.65268 1.3274 8.92925 132 95 75
-2.09089 1.47578 9.71943 161 134 116
-1.88208 1.56984 9.74812 164 125 102
0.184388 1.2169 7.82325 104 74 60
1.08201 1.1775 7.73788 88 68 43
-1.12377 1.35909 6.00529 112 118 100
1.72952 1.22399 7.35624 135 110 96
1.88474 1.59351 9.01431 120 102 98
1.03781 1.67149 8.17177 92 72 56
1.84525 1.69276 8.93346 30 6 3
-0.799462 1.99345 8.70121 112 69 58
2.36771 2.20363 11.2939 94 74 64
2.36178 2.25494 11.5328 84 68 54
-0.992391 2.34536 9.19749 102 70 59
2.34129 2.31055 11.4535 48 27 15
2.21274 2.28574 10.4868 116 100 92
1.65746 2.29733 9.4633 34 8 4
0.0115783 2.57324 8.94387 120 88 78
0.0562709 2.58208 8.85512 116 88 80
1.69418 2.52759 9.48163 98 71 66
-0.858985 2.98596 9.73938 48 11 2
-0.7759 2.94163 9.44565 110 76 68
2.10155 2.91242 10.8776 112 89 83
1.70489 2.8451 9.53537 82 51 47
1.63203 2.9373 9.71053 112 85 82
-0.727911 3.43987 9.89894 112 78 68
2.02131 3.39607 11.0819 107 82 80
-0.561992 3.88488 10.1061 118 74 67
1.90126 3.90949 11.3385 100 72 65
-0.00459266 4.00334 10.1685 54 17 11
1.77792 4.07959 11.474 58 33 25
1.67917 4.00599 10.9005 65 36 32
1.60048 4.06493 10.9982 119 98 95
1.41511 3.99681 10.5226 74 47 46
0.121931 4.23642 10.0675 124 79 68
-0.139235 4.45822 10.664 98 52 33
1.25516 4.27142 10.6075 57 32 29
1.16593 4.28086 10.4055 84 62 61
-1.47031 -4.14834 11.1989 87 92 59
3.0115 -2.53424 8.08959 77 82 53
-0.772418 -0.841438 8.54241 96 96 60
-1.07417 -0.84633 9.00121 40 42 16
-2.81496 -0.894343 11.2335 99 87 52
-0.99271 -0.748164 8.53595 66 66 39
0.951938 -0.830432 9.22574 74 79 60
-0.547956 -0.569294 8.63784 42 46 18
0.482546 -0.76071 11.6204 150 151 118
0.646202 -0.74843 12.6462 157 146 110
0.357603 -0.73498 13.1118 94 76 59
0.569974 -0.699628 12.6014 70 52 36
-1.73241 -0.302216 10.6429 144 137 88
-0.767533 0.100279 8.80237 54 51 38
-0.0292142 0.0400639 9.35778 58 51 26
-2.239 0.336025 10.9247 106 98 84
-2.50819 0.581952 10.9828 128 109 90
-0.990881 0.827519 6.40895 95 97 68
-1.63825 1.11173 9.7769 99 76 56
1.35791 0.777445 8.36373 21 23 8
-2.11288 1.23005 10.5495 97 78 64
-1.2463 0.962856 6.18438 124 115 92
-0.949698 1.12519 8.35484 50 30 12
-1.46487 1.21053 8.52739 118 76 50
-0.961326 1.01386 6.01531 85 94 70
-1.58626 1.34342 8.94802 79 43 22
-1.82705 1.47324 9.46741 152 116 92
-0.0271281 1.25583 8.18496 52 18 8
1.62957 1.09003 7.62279 120 100 80
-1.06553 1.4447 8.55245 70 24 4
-1.04058 1.27007 5.68318 99 100 78
-1.11014 1.31268 5.73759 94 94 76
-1.35743 1.92237 9.60889 36 7 1
1.8743 1.59542 9.06005 120 96 93
1.89145 1.64899 9.13071 24 8 6
2.37927 2.17665 11.5727 126 114 102
-0.895267 2.2898 8.9698 105 68 58
-1.68102 2.64471 10.3124 154 125 108
1.79311 2.15121 9.15418 95 73 69
2.23402 2.26774 10.332 104 88 80
-0.565321 2.4193 8.90684 38 6 0
1.73873 2.23362 9.32394 107 86 82
1.91056 2.43521 9.64909 100 70 64
-1.76278 3.1504 11.0479 143 116 100
2.26741 2.75055 11.6859 116 102 86
0.186763 2.48328 8.50293 118 86 75
1.67515 2.5414 9.55349 90 60 55
-0.805491 2.86426 9.41852 114 75 64
1.66652 2.8759 9.67988 80 48 44
-0.801829 3.45311 10.0487 106 62 52
0.147292 3.73642 9.7169 60 18 8
0.112385 3.8154 9.7333 109 78 70
0.811695 3.87963 9.87416 110 79 77
1.10937 4.4344 11.1581 57 32 27
-0.121644 4.47771 10.4125 119 69 51
1.16859 4.2621 10.3641 120 98 97
0.874663 4.36217 10.3506 74 37 30
0.871355 -1.78967 5.30651 132 128 84
0.713281 -2.58025 10.6851 128 130 86
2.54744 -2.17928 8.28319 58 66 42
0.670232 -1.62194 5.80333 152 148 102
1.9147 -1.64616 8.57149 73 78 56
-3.62048 -1.72735 11.2919 135 130 76
-0.933605 -0.825884 8.7248 43 44 16
0.667372 -0.70254 12.4742 160 150 112
-0.977073 -0.371173 7.72557 113 110 60
0.644817 -0.69268 12.401 64 48 27
-0.651619 0.614552 6.62403 124 86 60
-1.01353 0.69134 7.01702 116 104 76
0.0590173 0.805498 8.66375 75 54 39
-0.853605 0.808587 6.18573 100 101 72
-0.992639 0.922145 7.5202 96 75 48
-1.66016 1.42329 9.15339 156 119 93
-1.5116 1.4936 9.18592 120 75 48
-1.11579 1.46155 8.65603 70 24 4
-1.10352 1.2783 5.78068 84 86 64
1.95625 1.32002 8.4717 126 92 85
-1.25874 1.43071 6.14305 108 111 88
-1.81755 1.95109 9.90774 130 102 82
-0.713655 1.6874 8.21555 74 46 39
-0.864469 1.4059 5.03888 93 96 74
1.00269 1.7049 8.3021 91 70 56
0.898808 1.77914 8.4374 25 4 0
-0.860653 2.53651 9.51161 32 6 2
0.173654 2.24812 8.44149 49 22 17
1.71441 2.24585 9.44228 104 84 79
1.71581 2.24634 9.20793 36 12 6
0.189809 2.48163 8.49539 118 86 75
-0.0808481 2.62781 9.04004 52 17 7
2.55918 -2.17629 8.26189 60 68 46
0.707701 -1.56873 5.71788 114 111 68
-1.10875 -1.27447 9.60523 84 84 54
-2.39594 -0.840648 10.4406 132 122 77
0.48928 -0.733164 12.3106 84 66 42
0.754865 -0.702328 12.8866 161 144 102
-1.02596 -0.406424 9.20504 34 32 10
-2.29777 -0.324291 11.7982 144 135 86
-2.08833 -0.170163 8.9774 140 132 78
-2.72587 0.255541 9.82044 122 94 70
-2.32568 0.466142 10.8014 113 94 72
-2.04575 0.599212 9.97152 142 124 102
-0.987355 0.83889 6.39421 98 98 69
-1.6689 1.0473 9.30203 38 20 4
-1.84886 1.08874 10.1186 129 108 96
-1.97972 1.19277 10.1048 27 12 2
-0.229796 0.920612 8.26099 15 8 4
-1.1114 0.944468 5.96048 118 110 88
-1.76676 1.46389 9.39237 168 132 102
-1.88871 1.5157 9.4178 116 92 73
-1.71559 1.5105 9.40846 168 128 104
0.19117 1.18197 7.6122 54 18 10
-1.32062 1.24419 5.88349 130 122 102
-1.13375 1.29717 5.80745 93 93 72
1.93761 1.32385 8.559 128 94 86
1.27872 1.35052 7.28281 143 99 78
-1.48885 1.51273 5.73497 134 124 104
-1.92371 2.36525 10.4087 146 124 105
1.73882 1.95944 9.18148 27 6 2
-1.76864 2.68525 10.5068 154 125 108
-0.497823 2.31723 9.0159 40 8 4
0.123126 2.20282 8.42171 87 56 49
0.984387 2.25523 8.56774 112 88 84
-0.973169 2.82119 9.81034 40 5 0
-1.5583 3.05822 10.6251 143 116 100
2.23144 2.82488 11.5004 45 18 10
-1.00301 2.99321 9.89839 120 87 78
-1.22224 2.4114 4.60701 142 128 112
0.113548 3.91101 9.91778 52 15 8
1.24119 4.26475 10.6163 58 32 26
0.198661 4.42565 10.3666 104 56 43
0.633317 4.51103 10.4614 79 39 26
0.459867 4.5521 10.3377 102 64 50
4.30006 -3.27009 7.50063 132 134 86
0.653962 -1.71823 5.76278 109 105 60
0.534255 -1.62593 6.11063 104 100 58
-1.67487 -1.06598 9.92102 74 74 46
-2.68503 -0.875125 10.9769 106 94 56
0.327814 -0.719577 9.49756 128 133 93
-2.48212 -0.40933 9.60045 106 86 42
0.490135 -0.711698 12.1876 79 58 34
-0.356852 -0.354036 7.68374 68 70 29
-2.49626 -0.324541 12.1846 146 138 82
-1.20766 -0.168299 7.73619 142 138 84
-2.04408 0.434166 10.2691 96 76 54
-2.22285 0.609968 10.2966 122 105 82
-0.755873 0.488642 6.53403 82 83 52
-2.63209 0.864568 10.1555 117 83 52
-1.17904 0.858929 7.0429 106 109 86
-1.24016 0.965238 6.14668 132 122 101
-1.5159 1.21144 9.53115 69 48 34
-0.978654 1.02179 6.01178 82 88 66
-1.52954 1.24819 8.66564 102 59 36
-1.04991 1.08188 6.07542 96 96 71
1.50517 1.11307 8.04474 110 90 72
