ply
format ascii 1.0
element vertex 1291
property float x
property float y
property float z
property uchar red
property uchar green
property uchar blue
end_header
0.227714 -0.479501 2.12534 139 88 62
0.674117 -0.450025 2.01342 20 12 6
0.635577 -0.449267 2.01566 64 30 18
0.653029 -0.43723 1.99337 138 94 70
0.746149 -0.433983 2.08442 66 78 48
0.190507 -0.452294 2.09791 84 46 21
0.673614 -0.424691 2.02368 109 77 54
0.319461 -0.448282 2.1672 162 144 122
0.657844 -0.423848 2.05775 103 59 30
0.182106 -0.435609 2.0513 136 86 70
0.203114 -0.440097 2.09953 86 35 14
0.798534 -0.422034 2.16816 113 102 80
0.711872 -0.403906 1.94041 17 10 10
0.648423 -0.412887 2.04257 109 67 40
0.0794766 -0.435092 2.10773 76 34 14
0.744449 -0.401984 2.05379 124 105 86
0.177463 -0.426256 2.0718 175 124 108
0.748466 -0.40611 2.11506 48 30 14
0.710946 -0.391054 1.95711 186 137 111
0.679989 -0.39693 2.05889 107 76 52
0.0570578 -0.424923 2.08364 125 80 52
0.707294 -0.381028 1.95658 81 36 16
0.676135 -0.3881 2.09893 86 63 27
0.122417 -0.409754 2.04847 76 28 15
0.161549 -0.402008 2.07793 156 100 80
0.144601 -0.391925 2.10853 160 139 114
0.718984 -0.346214 2.01993 150 91 66
0.78516 -0.336187 1.97889 24 10 0
0.757074 -0.324648 1.98394 46 26 20
0.769203 -0.304691 1.94653 188 166 154
0.68406 -0.278697 1.90414 93 52 30
0.63138 -0.272409 2.05088 144 34 24
0.318325 -0.277879 1.94784 72 14 8
0.693455 -0.231375 1.98797 136 97 83
0.747506 -0.199482 2.02282 192 148 96
0.438366 -0.220563 1.96464 163 124 111
0.377163 -0.225287 1.93631 148 128 120
-0.0998932 -0.260366 2.02105 82 4 6
0.408901 -0.211067 1.94402 146 125 124
0.310632 -0.181302 2.01204 144 102 86
0.375077 -0.162204 2.00961 57 18 17
-0.0994531 -0.201116 2.08592 140 74 33
-0.1694 -0.205495 2.0504 144 41 28
-0.172747 -0.199321 2.05537 162 116 94
-0.172953 -0.19445 2.0545 130 49 34
-0.165476 -0.185596 2.06963 166 81 42
-0.104683 -0.149962 2.04214 112 62 56
-0.144071 -0.133311 2.05369 140 29 32
0.269261 -0.62453 2.13855 84 50 28
0.216225 -0.624608 2.20468 144 138 94
0.0350268 -0.602422 2.13981 42 26 16
-0.00994915 -0.591699 2.11607 146 102 82
-0.00872444 -0.59068 2.15178 36 15 6
-0.0294024 -0.552655 2.11652 158 112 90
0.0638603 -0.543041 2.14973 150 131 92
0.00435201 -0.528157 2.12656 114 59 44
0.70421 -0.499549 2.04305 78 22 10
0.334233 -0.501407 2.12138 148 138 98
0.0758055 -0.510206 2.1688 94 58 29
0.739461 -0.474816 2.07818 68 38 16
0.181841 -0.510116 2.24221 95 68 29
0.32948 -0.486739 2.13119 153 104 79
0.679898 -0.466251 2.0776 174 143 124
0.693019 -0.45832 2.01532 61 69 36
0.219363 -0.471314 2.13126 132 85 58
0.195448 -0.470207 2.14374 165 116 84
0.640477 -0.433622 2.04296 124 108 72
0.12392 -0.446103 2.01488 108 72 36
0.187492 -0.451146 2.08024 80 44 17
0.656976 -0.423718 2.05688 106 62 34
0.207236 -0.445455 2.12863 72 26 8
0.0966529 -0.437409 2.02941 220 168 124
0.766497 -0.4015 2.08312 126 107 88
0.773326 -0.397748 2.1323 164 153 132
0.16526 -0.414125 2.06536 182 126 108
0.757941 -0.383453 2.02201 84 38 19
0.634774 -0.389277 2.05742 166 140 114
0.709803 -0.383751 2.08943 118 106 73
0.695351 -0.372378 1.94784 168 124 98
0.167932 -0.40203 2.11506 149 92 72
-0.118637 -0.396341 1.90859 122 29 37
0.652501 -0.35344 2.12658 134 83 56
0.0762651 -0.383388 2.13091 102 54 33
0.654023 -0.349224 2.11026 97 66 44
0.715878 -0.30962 1.98676 158 122 102
0.390081 -0.313293 2.03053 140 118 98
0.350389 -0.314791 1.95935 164 152 130
-0.11466 -0.304418 1.98865 92 87 96
-0.137239 -0.300226 1.97337 18 14 27
0.438152 -0.240942 1.94819 152 136 116
0.318805 -0.218163 2.16959 109 84 74
0.297402 -0.231013 2.00449 159 133 115
0.437782 -0.21905 1.96332 158 120 105
0.381046 -0.163968 2.00005 120 66 66
0.0198906 -0.612349 2.11186 108 96 54
0.0361613 -0.607863 2.1675 36 19 10
0.290399 -0.60376 2.15105 50 20 9
-0.0126777 -0.590953 2.1089 126 84 64
0.00430006 -0.529533 2.11769 90 42 28
0.279183 -0.519991 2.09305 48 16 10
0.718445 -0.515462 2.1062 160 154 106
0.661259 -0.477136 2.01741 170 134 114
0.0744265 -0.511458 2.16887 100 64 36
0.602343 -0.457186 1.95111 156 128 110
0.342128 -0.484081 2.14297 106 75 42
0.609065 -0.456268 1.99231 112 88 58
-0.0608044 -0.477426 2.20431 144 124 96
0.718735 -0.435773 2.07785 38 15 6
0.701615 -0.436209 2.15356 162 151 126
0.71983 -0.411165 1.95577 22 12 9
0.68367 -0.416145 2.06857 156 125 104
0.70396 -0.39613 2.09487 114 83 60
0.688513 -0.381409 1.93394 64 18 6
0.667027 -0.389636 2.08799 121 94 67
0.00840869 -0.407903 2.16537 58 18 11
0.635205 -0.366628 2.10051 98 66 30
0.728932 -0.346931 2.01665 160 118 90
-0.0320229 -0.385893 2.00587 114 45 32
0.726868 -0.33129 2.02784 166 140 125
-0.0149001 -0.365629 1.99326 128 24 20
-0.0178953 -0.359428 2.04529 130 16 15
0.634258 -0.276589 2.0737 124 26 18
0.705168 -0.271781 1.96811 96 50 28
0.642335 -0.261285 2.03563 124 96 92
-0.114914 -0.319059 1.96741 22 16 29
0.755255 -0.243186 1.99529 132 89 68
0.729481 -0.248023 1.94809 144 102 86
0.31002 -0.262633 2.04483 160 130 114
0.131304 -0.255302 2.19218 48 16 10
0.307881 -0.248388 2.04233 163 136 122
0.126398 -0.238702 2.15834 78 40 28
0.275055 -0.234672 2.02009 128 104 98
0.445725 -0.228338 1.93299 93 71 60
0.313232 -0.224681 2.05145 158 134 116
0.401871 -0.191762 2.00319 136 111 104
-0.0924937 -0.224715 2.05038 140 83 40
-0.0882718 -0.214606 2.06843 156 120 110
0.323448 -0.177186 1.95872 106 70 70
0.352572 -0.166118 2.00547 64 17 16
0.310011 -0.164105 2.01594 82 46 36
0.338467 -0.147244 1.99849 84 49 41
-0.140641 -0.193154 2.04147 144 78 34
0.665559 -0.464783 2.01338 150 98 76
0.669646 -0.452147 2.0211 130 78 58
0.842056 -0.242708 1.96323 165 122 98
0.799811 -0.230521 1.94732 92 50 38
0.78396 -0.200385 1.9672 101 84 76
0.692734 -0.206826 1.98677 50 18 16
-0.128375 -0.211878 2.06784 141 93 78
-0.0640771 -0.162136 2.05413 117 54 46
0.680774 -0.506963 2.02287 183 132 102
-0.0490606 -0.486589 2.16916 158 130 112
0.656445 -0.416901 2.06436 146 110 85
0.701546 -0.375996 1.95378 172 128 104
0.734461 -0.338847 1.9697 152 127 114
0.726712 -0.333129 1.95239 144 125 114
-0.105143 -0.376941 1.98855 142 95 79
0.359036 -0.304145 1.95374 132 82 58
0.721985 -0.253756 1.96065 156 121 104
0.688948 -0.218566 1.9752 128 46 48
0.221224 -0.608963 2.14198 170 114 92
-0.0139403 -0.589855 2.09765 108 71 48
0.326046 -0.469858 2.13692 39 16 6
0.644572 -0.364019 2.12711 153 132 107
0.737526 -0.3366 1.97513 124 99 84
0.737389 -0.332365 1.97145 166 146 134
0.466568 -0.219003 1.98553 122 104 93
0.37933 -0.224454 1.93999 168 150 142
0.0124371 -0.576394 2.10803 56 20 7
0.0378467 -0.573923 2.12218 62 22 8
0.0380908 -0.557839 2.10769 120 64 42
0.0067056 -0.546123 2.09963 170 108 84
0.653187 -0.417298 2.05796 136 98 72
0.712901 -0.384359 1.94725 197 165 144
0.73536 -0.297141 1.99762 205 166 145
0.626823 -0.283367 2.07518 168 140 126
0.395984 -0.210844 1.92594 228 210 206
0.308942 -0.451421 2.15641 30 8 2
0.658619 -0.42819 2.04588 155 118 98
0.0989674 -0.437541 2.05406 218 160 120
0.0939871 -0.413278 2.06611 127 70 52
0.719909 -0.298521 1.99392 104 58 35
0.716719 -0.261128 1.95115 120 76 51
0.774819 -0.243953 1.9497 145 116 100
0.0479994 -0.594352 2.15602 30 16 4
0.0768057 -0.509517 2.17047 92 56 22
0.0293195 -0.505844 2.15144 128 74 48
0.721814 -0.386881 1.93161 156 114 98
-0.0457044 -0.379146 2.02492 116 24 6
0.689666 -0.272254 1.94784 102 54 30
-0.124184 -0.266994 1.99958 20 14 26
0.395474 -0.209636 1.93103 138 122 116
0.416261 -0.17702 1.95381 157 30 29
0.218306 -0.574855 2.12716 160 90 61
0.00520862 -0.551622 2.10548 160 102 80
0.715492 -0.282788 1.96602 96 50 26
0.635883 -0.27023 2.06472 134 12 11
0.74742 -0.222294 1.95631 180 140 129
0.689045 -0.203844 1.98612 50 26 22
0.394343 -0.209896 1.93059 138 121 114
0.179799 -0.424823 2.07284 162 110 94
-0.100469 -0.379032 1.97174 151 126 106
0.635919 -0.338606 2.11081 106 70 36
0.362799 -0.319691 1.96472 124 104 77
0.687287 -0.206458 1.98415 70 32 32
0.391719 -0.233365 1.93054 129 62 58
0.427303 -0.226051 1.94149 146 122 110
0.123249 -0.404825 2.05855 119 74 60
0.308799 -0.316991 1.91854 160 112 91
0.687959 -0.454172 2.03992 116 73 54
0.651451 -0.385952 2.05701 86 61 33
0.721671 -0.312212 2.00256 94 59 38
0.811436 -0.228591 1.95117 40 14 6
0.695301 -0.226889 1.97896 140 103 94
-0.125085 -0.229819 2.05399 150 116 97
0.167474 -0.407224 2.06839 110 51 33
0.792287 -0.338103 1.97325 22 11 7
0.692422 -0.217859 1.9795 130 48 51
0.327694 -0.142885 2.02919 122 90 80
0.208312 -0.425852 2.09037 76 24 8
-0.0386883 -0.43107 2.18196 145 120 100
0.247353 -0.608946 2.11388 163 108 88
0.00523443 -0.537984 2.11873 138 78 62
0.0484075 -0.495752 2.14171 158 111 90
0.671786 -0.42517 2.04112 66 24 12
0.095005 -0.415029 2.06141 86 31 13
0.400653 -0.222761 1.92999 132 112 114
0.296179 -0.54269 2.13945 114 66 49
0.647055 -0.244771 2.04483 103 74 77
0.377593 -0.226916 1.94259 146 126 120
0.334226 -0.499417 2.12854 66 38 9
0.666126 -0.463288 2.01458 152 103 82
0.632796 -0.452892 2.01283 60 26 14
0.673272 -0.423877 2.0355 54 13 1
0.260577 -0.429348 2.13288 104 62 45
0.689269 -0.218413 1.9732 142 56 56
0.791944 -0.205893 1.96576 213 186 170
0.688196 -0.205811 1.98903 39 14 10
0.668988 -0.452275 2.02127 133 81 58
0.262125 -0.430039 2.14085 109 67 50
0.675379 -0.366627 2.06831 29 16 6
0.716412 -0.258927 1.95477 134 88 67
-0.0955198 -0.206661 2.07369 128 56 27
-0.0621187 -0.166548 2.02909 120 28 22
0.0264281 -0.556186 2.11385 88 34 16
0.0559126 -0.53525 2.1635 67 25 9
0.725214 -0.327596 1.96356 164 138 124
0.636876 -0.27612 2.04986 167 102 88
0.273088 -0.238079 2.02324 186 165 158
-0.134321 -0.205561 2.08347 106 58 46
0.655123 -0.368387 2.0837 22 8 1
0.699916 -0.223698 2.01169 170 127 121
0.374848 -0.247421 1.91253 104 82 67
-0.135123 -0.217481 2.04025 104 22 8
-0.129197 -0.212394 2.07023 144 106 94
-0.162695 -0.206271 2.0452 167 78 48
-0.137459 -0.139118 2.02141 126 33 36
0.0180643 -0.580815 2.10175 68 41 27
0.753965 -0.406209 2.12715 68 50 26
0.665766 -0.391891 2.04833 152 116 94
0.333801 -0.29223 1.93416 42 12 6
0.672586 -0.254434 1.98605 141 95 74
-0.140038 -0.303309 1.97676 52 48 54
-0.128172 -0.229465 2.06209 148 124 108
-0.0925835 -0.223721 2.07004 112 40 14
-0.131373 -0.205154 2.07216 106 48 38
-0.0417454 -0.473611 2.16025 165 108 77
0.66424 -0.256278 1.99876 168 137 126
-0.146285 -0.248332 1.99635 68 5 6
-0.135064 -0.238618 2.04173 156 105 90
0.680691 -0.416388 2.06654 152 120 100
0.208763 -0.40837 2.13396 107 57 40
0.122681 -0.4087 2.1219 119 72 56
0.692068 -0.331988 2.00446 34 22 18
-0.13961 -0.196772 2.08466 152 112 96
-0.00470858 -0.585169 2.09842 108 67 46
0.32963 -0.53633 2.12927 145 135 93
0.715049 -0.48106 2.0494 77 18 8
0.714153 -0.352694 1.94709 159 132 112
0.712742 -0.327286 1.93666 69 54 48
0.308868 -0.296202 1.9243 27 10 6
0.689629 -0.201051 1.97176 175 148 140
-0.100113 -0.201188 2.07566 133 76 28
0.220886 -0.632188 2.20621 120 106 68
0.211041 -0.609058 2.18423 132 117 82
0.629613 -0.453058 2.01317 118 86 70
0.676128 -0.426492 2.00863 54 46 34
0.702215 -0.429129 2.06451 104 72 52
0.679219 -0.423958 2.04763 45 10 0
0.0642774 -0.444084 2.12291 122 81 54
0.698567 -0.388326 1.95555 96 44 14
0.697342 -0.38417 1.95198 83 35 12
0.63452 -0.38076 2.06479 52 24 8
0.631534 -0.371056 2.06878 32 17 4
0.645463 -0.364078 2.12894 150 127 102
0.667157 -0.358354 2.10807 125 98 76
0.718892 -0.326833 1.96316 39 18 5
0.685086 -0.317048 2.02437 141 120 103
0.792155 -0.303547 1.97065 203 183 170
0.783037 -0.21181 1.95122 216 189 164
0.792025 -0.201053 1.96779 42 28 20
0.276337 -0.235323 2.01439 91 64 56
0.709626 -0.193621 1.98119 104 84 79
0.274873 -0.22764 2.01452 112 86 74
-0.0908646 -0.212823 2.07284 150 96 86
0.218984 -0.631574 2.18928 121 112 72
0.211158 -0.619474 2.14844 140 130 88
0.215317 -0.600999 2.15491 161 110 86
0.0512384 -0.586155 2.1281 68 42 14
0.683641 -0.497508 2.05191 166 153 106
0.770856 -0.414567 2.13191 112 97 70
0.71203 -0.401305 2.09944 101 74 47
0.664624 -0.397652 2.0749 146 118 91
0.651929 -0.377017 2.08331 29 11 4
0.683744 -0.371091 2.0819 90 70 56
0.630768 -0.370386 2.06678 32 17 4
0.719953 -0.326843 1.96527 66 41 26
0.734395 -0.32094 1.96197 23 14 6
-0.13272 -0.209108 2.0716 122 78 66
0.21001 -0.593425 2.17783 51 27 8
0.71974 -0.467566 2.04899 128 121 83
0.734222 -0.433607 2.10632 62 36 24
0.749404 -0.405417 2.09862 52 39 19
0.746967 -0.398939 2.10117 50 35 14
0.158643 -0.396751 2.12149 152 126 103
0.690763 -0.336258 1.98142 146 120 108
0.693585 -0.336077 1.98057 155 124 109
0.711188 -0.312581 2.03304 103 80 68
0.797651 -0.252229 1.94895 156 104 88
0.675527 -0.250629 1.99469 130 92 76
0.464472 -0.233646 1.98068 151 136 120
-0.125733 -0.231193 2.05584 141 106 87
-0.0917054 -0.211548 2.08385 150 97 87
-0.0984709 -0.203099 2.09072 126 51 18
-0.136131 -0.20053 2.06475 150 104 94
0.213178 -0.619811 2.1873 148 140 96
0.211903 -0.595421 2.18963 53 32 9
0.640192 -0.476822 1.98814 161 116 96
0.705957 -0.429081 2.05468 20 11 8
0.700562 -0.389452 1.95736 132 76 44
0.637542 -0.396248 2.03067 139 112 84
0.210782 -0.40779 2.13719 100 50 28
0.16304 -0.404978 2.0931 146 92 74
0.656649 -0.369121 2.11065 44 28 12
0.721848 -0.348852 1.99081 128 90 70
0.730865 -0.327427 1.97008 158 130 114
0.711389 -0.312849 2.03456 100 80 66
0.339497 -0.312418 2.048 135 102 71
0.713908 -0.279609 1.97738 136 98 80
0.713743 -0.210137 2.0261 158 91 90
0.466058 -0.230036 1.95829 174 159 153
0.307849 -0.229579 2.02648 158 132 117
-0.0324332 -0.579772 2.10968 104 66 42
0.699927 -0.52347 2.07002 132 105 60
0.218307 -0.482941 2.11929 155 106 74
0.683088 -0.440546 2.03507 134 90 68
0.708358 -0.418643 2.07046 154 139 116
0.79694 -0.422627 2.16873 105 94 70
0.706108 -0.404372 1.93381 18 11 12
0.315284 -0.435963 2.17956 88 52 25
0.710594 -0.400098 2.00822 130 108 91
0.177949 -0.425438 2.08451 174 122 105
0.826737 -0.396539 2.18692 160 152 128
0.634892 -0.389748 2.03599 104 80 52
0.637946 -0.369183 2.07993 45 28 12
0.736514 -0.347421 2.01231 128 94 72
0.687014 -0.342644 1.9909 31 20 11
0.641262 -0.345771 2.08341 38 22 6
0.304381 -0.259297 1.99532 142 61 51
0.309273 -0.229242 2.01199 138 50 39
0.454049 -0.21444 2.00285 158 96 86
0.386478 -0.212414 1.92779 40 22 12
0.39452 -0.210944 1.92711 140 126 119
-0.114556 -0.199423 2.07482 128 50 22
0.348756 -0.148573 1.99223 107 76 74
-0.0660324 -0.162858 2.05408 122 23 21
0.22354 -0.602938 2.1878 83 40 22
-0.0171477 -0.577938 2.10645 161 116 93
0.0377015 -0.555389 2.09376 145 90 69
0.646275 -0.463004 2.01233 72 51 35
0.201255 -0.462687 2.09633 100 59 29
0.79236 -0.408279 2.1618 66 52 31
0.669429 -0.370699 2.07383 34 12 0
0.696555 -0.355439 1.95403 183 140 115
0.668942 -0.357994 2.10497 130 105 80
0.719473 -0.341526 1.95781 184 158 137
0.703407 -0.333234 2.00056 92 73 64
0.760395 -0.329524 1.99648 174 150 140
0.75371 -0.327288 1.99649 136 112 98
0.732376 -0.322533 1.96219 26 19 16
0.717701 -0.311 2.00085 102 70 48
0.750603 -0.308422 1.95956 130 112 94
0.72364 -0.299889 2.00138 100 57 30
0.62206 -0.298265 2.031 150 78 54
0.722078 -0.218821 1.9737 92 108 96
-0.137199 -0.213533 2.04753 107 19 7
-0.135801 -0.202963 2.09587 91 26 18
-0.110896 -0.200914 2.06044 131 64 26
0.0476928 -0.597166 2.15893 41 27 12
0.213135 -0.594067 2.14392 70 36 22
0.775384 -0.48836 2.13188 76 26 12
0.144712 -0.499237 2.25952 108 70 39
0.690222 -0.441727 2.04902 156 118 98
0.74761 -0.417884 2.10023 90 77 50
0.11688 -0.411481 2.11895 97 50 39
0.696754 -0.271757 1.95817 100 54 28
0.471871 -0.213982 2.00639 145 130 117
0.0465248 -0.588366 2.11337 40 25 10
-0.0235633 -0.574594 2.12922 150 102 79
-0.0316304 -0.557157 2.13026 123 80 61
0.669579 -0.505612 2.00797 150 94 67
0.677649 -0.494092 2.00809 77 18 8
0.65767 -0.488364 2.01745 124 75 47
0.651975 -0.432858 2.03357 160 128 110
0.0649412 -0.451332 2.10718 82 39 20
0.0988959 -0.441499 2.06155 204 148 108
0.737242 -0.405262 2.12119 161 152 128
0.165561 -0.415663 2.08347 107 50 34
0.107041 -0.414168 2.1032 184 126 104
0.655538 -0.382731 2.04354 164 132 108
0.626411 -0.376853 2.05395 144 120 97
0.070829 -0.383998 2.0656 120 70 48
0.647518 -0.347574 2.09813 74 46 20
0.688521 -0.343216 1.97529 86 44 28
0.72816 -0.325806 1.96643 136 116 103
0.709738 -0.210765 1.97911 192 146 90
0.323142 -0.175437 1.98834 140 48 42
0.258773 -0.629286 2.11682 89 59 42
0.703585 -0.539433 2.03635 100 58 27
0.330142 -0.540126 2.14038 72 55 22
0.335525 -0.503608 2.13451 133 110 86
0.143397 -0.507002 2.25584 158 146 112
-0.0497287 -0.487834 2.17639 154 131 112
0.331446 -0.466482 2.13904 98 78 54
0.78587 -0.34798 1.95685 76 53 38
0.643135 -0.235038 2.0757 140 127 117
0.711564 -0.193589 1.98326 29 14 10
0.231123 -0.621279 2.14234 108 68 52
-0.0152067 -0.591397 2.10592 118 78 54
0.277328 -0.591437 2.11851 102 66 47
0.214305 -0.598867 2.16912 44 18 7
0.639519 -0.538616 1.87868 132 94 86
0.329845 -0.536227 2.14285 118 102 69
0.764115 -0.489078 1.94785 114 102 88
0.333321 -0.507318 2.1327 42 18 4
0.667034 -0.423728 2.02714 46 14 4
0.735671 -0.258135 1.94859 170 134 123
0.718298 -0.224627 1.96502 123 112 108
0.71428 -0.206042 1.97413 186 136 106
0.331116 -0.144106 2.0068 100 72 64
0.245332 -0.626227 2.12514 108 77 58
0.265126 -0.59048 2.11909 110 66 54
0.225371 -0.586602 2.12179 100 36 15
-0.0289544 -0.550338 2.09842 154 107 86
0.214628 -0.523134 2.18162 100 68 28
-0.0470353 -0.517363 2.17394 124 108 77
0.0142902 -0.512043 2.1494 95 46 30
0.0128205 -0.508589 2.14675 158 102 78
0.643609 -0.462436 2.00834 86 64 51
-0.0545157 -0.497452 2.1728 124 102 76
-0.0502621 -0.487017 2.17206 162 142 120
-0.0585096 -0.476568 2.17201 127 103 78
0.79439 -0.314196 1.97284 118 81 58
0.698103 -0.215689 1.97075 166 109 80
0.631246 -0.568107 1.85438 123 82 60
0.25628 -0.608324 2.12339 155 101 80
0.307803 -0.516322 2.13071 146 98 80
-0.0478861 -0.518413 2.17716 120 110 73
-0.0525457 -0.517925 2.18902 154 144 115
0.72719 -0.464817 1.9881 122 104 92
0.145571 -0.50775 2.2652 148 138 104
-0.0458074 -0.499786 2.1736 153 104 79
-0.055435 -0.497998 2.1754 135 116 90
-0.0591721 -0.473133 2.1718 116 95 70
-0.0593367 -0.469583 2.17326 127 106 81
-0.0166112 -0.458416 2.16846 94 46 32
0.630744 -0.564629 1.85418 134 94 77
0.636673 -0.539243 1.87683 129 76 69
0.633165 -0.537819 1.88228 34 6 6
0.0130628 -0.576989 2.10547 54 23 12
0.269479 -0.537631 2.1524 104 59 38
0.153342 -0.502434 2.26491 162 148 121
-0.0460763 -0.485633 2.17479 32 8 1
0.324824 -0.472411 2.1452 30 7 2
0.684031 -0.209185 1.999 70 36 32
0.629834 -0.558394 1.86026 108 60 36
0.232885 -0.550936 2.17706 60 22 2
-0.0499491 -0.515319 2.1685 130 122 86
0.330039 -0.501604 2.13583 40 16 6
0.167728 -0.491499 2.26377 71 29 12
-0.0230672 -0.47668 2.16355 106 60 44
0.00562855 -0.536899 2.12129 154 96 76
0.00507162 -0.527559 2.14075 110 59 44
0.327765 -0.50634 2.13236 28 8 1
0.0482405 -0.494176 2.13926 160 113 93
-0.0587359 -0.470162 2.17252 110 90 65
0.324855 -0.507373 2.1353 28 8 2
0.635516 -0.248164 2.03227 86 59 60
0.655253 -0.427061 2.03959 162 126 104
0.648496 -0.416986 2.04599 152 112 86
0.792639 -0.314001 1.97095 90 42 22
0.733963 -0.258556 1.94645 176 142 131
0.788384 -0.22881 1.95005 184 158 143
0.717556 -0.224552 1.96407 112 108 100
0.6255 -0.549034 1.89234 110 36 29
0.329772 -0.159933 2.01382 132 105 99
0.229762 -0.619555 2.13872 141 94 76
0.234863 -0.593615 2.12385 90 34 12
0.299191 -0.54455 2.15843 120 73 58
0.647299 -0.41732 2.04365 142 102 76
0.690091 -0.206269 1.98879 48 18 14
0.612566 -0.567308 1.91719 120 104 94
0.720967 -0.521186 2.04316 103 60 26
0.616324 -0.574157 1.92776 88 78 65
0.010837 -0.520075 2.1346 150 90 73
-0.0599883 -0.473285 2.17488 136 114 92
0.32769 -0.563581 2.16238 112 99 68
0.268169 -0.536069 2.14948 116 68 48
-0.0434309 -0.500504 2.1782 164 112 87
0.17902 -0.433404 2.06386 84 40 22
0.717861 -0.311757 1.98268 136 106 89
0.62773 -0.282769 2.0837 155 128 110
0.747777 -0.202452 2.0598 108 24 25
0.712122 -0.22386 1.96185 88 103 90
0.644591 -0.298158 2.04045 168 140 133
0.625128 -0.545617 1.89174 136 62 56
0.680417 -0.53116 1.83034 167 141 133
0.277919 -0.589624 2.11691 112 70 50
0.667266 -0.524551 1.83753 107 82 70
0.848603 -0.511135 1.96333 108 92 66
0.864418 -0.508555 1.98312 48 40 20
0.848585 -0.504135 1.99213 112 96 94
0.863998 -0.494201 1.98416 113 68 37
0.716018 -0.500965 2.04614 76 50 16
0.34314 -0.512221 2.13142 94 80 38
0.711013 -0.475768 1.93927 142 120 108
0.33544 -0.507817 2.13737 48 22 4
0.289898 -0.496986 2.13314 103 58 45
0.718666 -0.455712 1.91986 195 110 85
0.712082 -0.444014 1.93095 164 111 102
0.803857 -0.42375 1.89986 48 28 14
0.799003 -0.420637 1.9014 143 123 108
0.711518 -0.423632 1.9252 128 118 118
0.674151 -0.364005 2.07411 84 58 44
0.702404 -0.341628 1.98452 56 30 16
0.745961 -0.321902 1.97421 28 14 7
0.781059 -0.241471 1.94647 196 165 146
0.83846 -0.23456 1.95838 105 70 54
0.799979 -0.221896 1.95578 104 76 63
0.72543 -0.49098 1.97934 118 105 90
0.669659 -0.376666 2.06457 158 128 112
0.760381 -0.361171 1.9532 106 64 47
0.669063 -0.364206 2.08719 91 58 24
0.702955 -0.227767 1.98469 96 96 86
0.701503 -0.208412 1.97856 180 117 92
0.696292 -0.200528 1.99383 34 18 13
0.0182608 -0.580817 2.10029 73 42 28
0.866355 -0.497704 1.99633 81 58 44
0.722836 -0.495237 1.99297 104 104 66
0.0616082 -0.521498 2.15756 54 17 1
-0.0544912 -0.501398 2.17392 120 97 70
0.715618 -0.438302 1.92378 136 54 34
0.638481 -0.44647 2.01537 72 42 24
0.705332 -0.432412 1.93545 74 56 48
0.652278 -0.424795 2.04313 78 35 15
0.648541 -0.387748 2.05246 86 60 30
0.750723 -0.326446 1.98792 95 76 65
0.634781 -0.298017 2.12313 130 102 82
0.664014 -0.258931 1.9955 132 96 81
0.786367 -0.249661 1.93974 188 157 139
0.823639 -0.240945 1.955 90 68 60
0.749726 -0.220055 1.95743 134 56 50
0.67854 -0.520803 1.83859 56 36 30
0.339537 -0.527126 2.12691 114 100 54
0.866322 -0.499208 2.00262 54 30 22
0.724025 -0.488344 1.97453 149 126 113
0.154907 -0.499979 2.2644 132 118 81
0.717444 -0.421217 1.95128 142 112 98
0.773707 -0.380216 1.92681 125 78 58
0.632659 -0.28157 2.09259 166 138 120
0.260589 -0.596473 2.11307 66 30 16
0.216531 -0.604157 2.16268 122 78 54
0.338146 -0.527621 2.12999 92 72 28
0.729941 -0.481932 1.97694 82 84 67
0.656423 -0.424064 2.05346 86 44 23
0.722056 -0.411393 1.9364 32 27 28
0.76122 -0.404347 1.92381 128 70 48
0.780483 -0.378492 1.93291 150 113 92
0.752114 -0.331903 1.98323 156 134 123
0.624689 -0.277125 2.09624 83 60 46
0.703627 -0.274474 1.94803 142 93 70
0.62515 -0.641574 1.9772 136 112 85
0.243826 -0.539642 2.15225 150 92 67
0.344122 -0.487796 2.13883 92 71 33
-0.0554979 -0.49772 2.18271 129 105 81
0.722983 -0.439398 1.93127 172 73 44
0.722934 -0.412087 1.93711 65 60 60
0.670442 -0.418158 2.05814 140 102 84
0.749738 -0.332366 1.98179 164 142 131
0.712713 -0.224464 1.95872 107 109 99
0.297472 -0.543514 2.14599 113 67 49
0.335849 -0.526788 2.12872 100 70 30
0.688129 -0.50105 2.071 156 154 104
-0.0548191 -0.500802 2.17126 130 109 83
0.0628904 -0.457053 2.12635 94 51 28
0.767589 -0.370409 1.93338 162 132 112
0.76359 -0.361795 1.95588 92 50 33
0.633914 -0.247703 2.01908 102 77 78
0.684899 -0.205628 1.97895 30 14 12
0.710473 -0.196012 1.98126 32 16 14
0.279485 -0.594647 2.12328 70 36 24
0.743735 -0.356908 1.95792 112 77 59
0.718818 -0.354162 1.95139 154 128 111
0.894257 -0.625485 1.88256 148 126 93
0.624677 -0.645983 1.98113 105 72 35
0.708953 -0.591097 1.82496 30 15 4
0.87778 -0.60187 1.85811 158 128 101
0.610789 -0.620155 1.96506 160 129 105
0.627181 -0.598544 1.89438 92 14 6
0.616516 -0.616937 1.97805 86 64 38
0.725324 -0.568919 1.79007 58 36 18
0.627076 -0.581118 1.86653 90 14 2
0.67346 -0.563563 1.80066 245 230 220
0.699017 -0.563653 1.79895 120 98 92
0.704946 -0.561783 1.79449 189 164 158
0.684075 -0.560943 1.79537 226 202 197
0.706855 -0.565887 1.8239 105 84 77
0.701049 -0.562412 1.81101 98 74 66
0.68979 -0.563274 1.8162 98 77 68
0.789291 -0.553614 1.79238 160 112 85
0.678062 -0.553256 1.80276 188 166 157
0.764922 -0.5492 1.79331 152 116 101
0.615012 -0.584063 1.95383 104 90 70
0.606463 -0.576367 1.92354 148 128 112
0.800446 -0.548905 1.80008 118 82 60
0.689642 -0.549499 1.80982 141 120 116
0.771453 -0.544223 1.79194 162 120 96
0.785711 -0.545087 1.79572 102 58 34
0.688739 -0.546478 1.80824 78 56 50
0.767262 -0.543168 1.79235 170 126 107
0.779446 -0.543448 1.79281 179 136 118
0.686329 -0.543093 1.8024 91 72 66
0.698864 -0.544668 1.80839 183 164 160
0.214036 -0.621262 2.16706 141 127 90
0.829109 -0.543725 1.82442 100 29 24
0.679571 -0.539666 1.81068 168 145 136
0.838028 -0.542107 1.8256 159 126 94
0.619843 -0.557881 1.90204 112 84 72
0.683293 -0.540272 1.82731 102 78 67
0.708365 -0.537364 1.81192 196 178 176
0.707742 -0.531606 1.80131 244 230 226
0.790958 -0.532098 1.80813 116 100 86
0.215316 -0.605038 2.17728 164 114 86
0.851616 -0.534821 1.84124 80 58 16
0.71018 -0.52859 1.81256 98 82 76
0.715069 -0.528913 1.81521 193 176 172
0.696129 -0.526307 1.80613 102 86 82
0.682325 -0.529457 1.82438 78 57 46
0.766277 -0.522843 1.80957 98 98 84
0.824524 -0.526573 1.82825 105 44 34
0.834202 -0.525219 1.82659 56 42 14
0.675587 -0.525825 1.83213 250 238 232
0.783064 -0.521901 1.81218 156 142 126
0.210183 -0.594867 2.17747 76 40 12
0.766743 -0.517553 1.80804 133 132 119
0.800302 -0.520589 1.82808 104 97 85
0.0447547 -0.581255 2.12929 70 36 16
0.68793 -0.518747 1.82774 96 74 66
0.827113 -0.517531 1.83274 140 115 96
0.807004 -0.515689 1.82693 115 85 63
0.763235 -0.508158 1.81833 115 98 86
0.70172 -0.538391 2.04064 148 108 74
0.0518443 -0.550842 2.11422 88 30 14
0.849299 -0.511014 1.95865 158 144 108
0.269166 -0.542214 2.1341 118 72 53
0.301252 -0.541906 2.15104 142 92 74
0.718141 -0.516104 2.03827 92 60 22
0.716594 -0.477554 1.9087 108 22 16
0.729745 -0.474789 1.92086 142 66 50
0.720675 -0.47287 1.89984 162 117 99
0.704795 -0.469686 1.91045 202 132 108
0.205846 -0.524211 2.28822 124 90 51
0.662819 -0.481196 2.01879 90 24 6
0.717748 -0.474358 1.99128 88 88 50
0.706737 -0.455336 1.9135 141 44 20
0.763015 -0.450232 1.91722 54 28 14
0.634658 -0.46188 2.0047 206 172 154
0.666449 -0.462757 2.01739 164 118 98
0.726833 -0.44636 1.90207 78 20 3
0.75253 -0.445813 1.90699 124 76 56
0.788605 -0.444856 1.91719 128 80 68
0.732852 -0.444307 1.90731 134 72 53
0.787354 -0.44336 1.9187 72 30 18
0.79496 -0.441437 1.9028 180 144 118
0.783988 -0.442711 1.92089 134 83 67
0.68765 -0.455252 2.03795 36 14 3
0.678011 -0.4525 2.0261 144 104 82
0.721454 -0.438682 1.9008 154 77 52
0.633964 -0.451374 2.00408 149 118 100
0.742904 -0.435985 1.90954 168 119 96
0.718594 -0.437958 1.92924 98 46 28
0.679279 -0.44438 2.0347 128 81 59
0.740393 -0.431548 1.92053 31 6 2
0.203969 -0.469357 2.16221 132 88 57
0.707282 -0.431415 1.93988 68 49 42
0.785497 -0.42496 1.90795 143 76 46
0.775945 -0.423854 1.914 204 137 108
0.684561 -0.436887 2.03159 80 51 34
0.729395 -0.425415 1.91814 92 80 80
0.685575 -0.436053 2.03571 114 78 56
0.707293 -0.433305 2.0511 24 28 21
0.745908 -0.421056 1.92436 87 55 42
0.689595 -0.431409 2.03965 30 8 0
0.714227 -0.431401 2.05829 144 153 140
0.681719 -0.427965 2.03331 106 70 50
0.653189 -0.429527 2.06409 93 67 44
0.664384 -0.42645 2.0215 48 14 2
0.74112 -0.41589 1.91099 57 25 12
0.705335 -0.4268 2.05937 32 22 10
0.713417 -0.424936 2.07037 146 138 119
0.663261 -0.422617 2.03092 100 57 42
0.732294 -0.424404 2.09646 152 148 126
0.794969 -0.409384 1.91752 111 69 50
0.65508 -0.424546 2.06623 147 116 90
0.719379 -0.410645 1.92993 152 147 150
0.699739 -0.419263 2.0581 140 122 98
0.643386 -0.41893 2.04226 116 85 57
0.711395 -0.404341 1.95174 154 125 112
0.712279 -0.400978 1.94554 90 67 57
0.740705 -0.408353 2.11406 108 92 66
0.182669 -0.427511 2.06911 102 54 38
0.743343 -0.402844 2.11912 164 147 122
0.715702 -0.40184 2.10539 160 146 120
0.193068 -0.415945 2.08668 86 34 18
0.206403 -0.407181 2.11061 76 27 11
0.673893 -0.371425 2.07319 106 83 66
0.716983 -0.351484 1.95113 125 98 84
0.802335 -0.34244 1.96905 44 22 6
0.697122 -0.343958 1.98705 64 25 11
0.696044 -0.343354 2.00387 41 20 9
0.688779 -0.343975 1.9777 136 94 76
0.72793 -0.339925 1.96268 176 152 137
0.795156 -0.332677 1.99369 34 22 14
0.701251 -0.336567 1.97874 59 34 18
0.790757 -0.331302 1.93772 152 124 105
0.729075 -0.333305 1.95727 173 152 141
0.802559 -0.329412 1.95848 50 24 7
0.802433 -0.330253 1.94912 148 120 109
0.918833 -0.320338 2.03044 152 122 96
0.69204 -0.326693 2.00213 24 16 8
0.727415 -0.324968 1.97315 52 27 14
0.80654 -0.320412 1.96474 50 29 14
0.729462 -0.320553 1.96319 70 54 46
0.68389 -0.320621 2.03741 83 70 50
0.812786 -0.312396 1.96921 52 39 32
0.723768 -0.315763 1.98202 94 64 46
0.754368 -0.305882 1.96728 196 174 160
0.638989 -0.299849 2.1493 104 90 67
0.723802 -0.29919 1.97454 222 186 165
0.87298 -0.288506 2.01281 58 30 4
0.630322 -0.298228 2.11289 106 76 56
0.628201 -0.282932 2.0972 104 80 64
0.620297 -0.284103 2.0554 174 130 112
0.66379 -0.281673 1.99718 222 181 158
0.707016 -0.280989 1.96838 140 99 82
0.660075 -0.280917 1.97075 198 150 130
0.668414 -0.266334 1.99188 175 138 125
0.684457 -0.262816 1.98668 210 188 184
0.843029 -0.252285 1.99248 201 184 180
0.84938 -0.248648 1.97028 144 102 88
0.647861 -0.255162 2.04514 137 112 110
0.848054 -0.241697 1.97225 170 132 116
0.791664 -0.247512 1.94722 196 158 137
0.693178 -0.239318 2.04073 232 214 206
0.816167 -0.236777 1.96027 62 28 21
0.703539 -0.233765 2.05126 250 236 230
0.826747 -0.230859 1.95131 176 152 138
0.822943 -0.230404 1.95189 62 39 26
0.821241 -0.22701 1.95603 148 128 120
0.819698 -0.225661 1.95924 40 22 16
0.812367 -0.224313 1.94598 96 76 64
0.846888 -0.214829 1.97923 58 40 26
0.836459 -0.21577 1.97132 92 72 58
0.842817 -0.211374 1.97913 191 168 153
0.793488 -0.213555 1.95828 220 192 170
0.7909 -0.207059 1.96428 234 210 192
0.439231 -0.237152 1.94745 136 119 107
0.774267 -0.207362 1.95432 50 32 28
0.794096 -0.203639 1.969 183 160 142
0.784809 -0.20243 1.95891 42 26 14
0.468697 -0.218596 1.98469 140 120 110
0.896043 -0.631641 1.89407 110 79 48
0.887004 -0.623055 1.87452 146 126 92
0.621428 -0.645178 1.97683 106 70 32
0.877921 -0.607925 1.86 134 110 79
0.707709 -0.591475 1.82342 25 14 6
0.878832 -0.603004 1.8598 156 130 104
0.613017 -0.617357 1.97749 106 85 48
0.72225 -0.569013 1.78634 26 13 6
0.677693 -0.565398 1.80783 173 146 134
0.680903 -0.5638 1.7999 221 202 196
0.667879 -0.562249 1.80264 149 116 101
0.699641 -0.562519 1.80298 198 174 166
0.698317 -0.566752 1.82362 216 200 195
0.857234 -0.570204 1.8322 118 90 64
0.683559 -0.561306 1.80538 126 106 98
0.700949 -0.563772 1.81318 106 86 79
0.814622 -0.560452 1.80171 106 80 56
0.613644 -0.597696 1.97715 105 100 67
0.807687 -0.557733 1.80581 144 114 96
0.79051 -0.554513 1.79393 154 107 80
0.679681 -0.554065 1.80568 176 153 144
0.76703 -0.550597 1.79722 142 106 92
0.684976 -0.550883 1.80754 86 64 56
0.615734 -0.583504 1.95406 104 90 70
0.612044 -0.579252 1.93661 140 122 106
0.782403 -0.544535 1.79748 162 117 98
0.789663 -0.545865 1.80083 108 62 38
0.776577 -0.546041 1.81292 130 94 80
0.762379 -0.538808 1.79499 129 92 80
0.619321 -0.564223 1.93393 86 70 60
0.216407 -0.60718 2.14791 62 25 6
0.719482 -0.536138 1.82058 210 194 192
0.678084 -0.536815 1.82689 94 66 58
0.792131 -0.532308 1.81024 115 101 88
0.711911 -0.539709 1.84519 140 124 116
0.706416 -0.532294 1.81703 203 188 182
0.715812 -0.534602 1.82647 202 186 182
0.709409 -0.52913 1.81081 122 105 100
0.0257037 -0.595936 2.14072 69 40 24
0.22051 -0.58902 2.13178 140 78 54
0.682676 -0.525319 1.82787 174 154 145
0.684923 -0.524404 1.82883 125 104 96
0.747019 -0.520584 1.81066 130 34 35
0.0196865 -0.578565 2.0915 92 57 44
0.837245 -0.525897 1.84378 133 89 77
0.668489 -0.524756 1.83858 119 94 80
0.767997 -0.518245 1.81154 146 134 124
0.0434823 -0.582562 2.13286 48 20 4
0.719151 -0.517676 1.81984 88 72 68
0.68588 -0.518948 1.83077 162 141 132
0.773266 -0.511209 1.83265 120 104 92
0.650979 -0.518058 1.88528 170 136 122
0.845885 -0.509824 1.95286 156 138 102
0.695063 -0.527366 2.05412 158 145 100
0.691554 -0.524948 2.05654 128 106 62
0.299124 -0.540084 2.13213 143 94 76
0.841942 -0.508638 1.99191 49 30 20
0.861118 -0.504483 1.97623 136 122 86
0.85648 -0.495994 1.9834 63 37 27
0.86658 -0.495605 1.98938 106 56 32
0.711551 -0.476373 1.9007 118 28 23
0.70769 -0.475841 1.91138 132 63 50
0.0639414 -0.519333 2.1467 54 16 4
0.730301 -0.474554 1.91674 154 106 88
0.791324 -0.481103 1.97398 156 134 122
0.705421 -0.469633 1.91109 202 132 108
0.740063 -0.469357 1.91127 154 122 109
0.194148 -0.523602 2.31796 98 70 30
0.742193 -0.460223 1.90228 188 135 108
0.723787 -0.470467 2.00075 152 143 104
0.72203 -0.47253 2.05416 61 32 6
0.753681 -0.449156 1.901 48 24 12
0.717274 -0.447334 1.91043 136 41 18
0.805955 -0.441591 1.89165 120 90 54
0.7848 -0.444199 1.91516 54 26 21
0.798678 -0.441663 1.90107 140 100 68
0.779265 -0.442088 1.91348 117 70 57
0.66551 -0.453373 2.0144 130 80 58
0.687923 -0.455291 2.0376 38 14 3
0.676786 -0.453112 2.02549 152 108 84
0.72251 -0.439138 1.90407 164 82 54
0.784991 -0.431599 1.9046 184 132 106
0.673049 -0.439524 2.02561 162 122 103
0.783375 -0.425376 1.90483 148 78 46
0.807098 -0.425021 1.90618 72 55 40
0.655099 -0.440618 2.05857 110 82 58
0.705093 -0.429168 1.93515 80 60 53
0.802466 -0.423341 1.90424 90 76 66
0.730476 -0.426283 1.91975 72 59 60
0.723469 -0.422751 1.92673 26 18 23
0.681013 -0.431315 2.03945 58 25 10
0.710765 -0.421693 1.93625 144 124 118
0.648713 -0.431542 2.05442 104 80 58
0.707468 -0.42794 2.05782 15 12 6
0.207218 -0.445398 2.08291 137 88 60
0.742099 -0.413129 1.91803 58 47 43
0.656763 -0.424784 2.05401 74 32 16
0.797425 -0.409589 1.92182 122 84 65
0.721063 -0.410939 1.93347 96 91 93
0.7831 -0.404513 1.927 175 127 103
0.707585 -0.404394 1.94647 161 132 117
0.731074 -0.400651 1.90621 23 12 14
0.712409 -0.401584 1.94538 84 63 55
0.711276 -0.406285 2.10381 86 60 34
0.730066 -0.403218 2.13388 139 122 98
0.73416 -0.402687 2.10276 157 142 120
0.192946 -0.416588 2.09231 101 51 35
0.791887 -0.35246 1.96324 61 34 20
0.716389 -0.350942 1.95063 140 113 98
0.797233 -0.338105 1.97972 26 10 2
0.770964 -0.338183 2.04365 177 151 135
0.708628 -0.338777 1.9925 43 20 6
0.724818 -0.337051 1.961 180 156 141
0.782316 -0.334426 1.9723 16 8 2
0.790079 -0.333602 1.9782 18 10 8
0.700782 -0.33747 1.98789 68 42 32
0.694112 -0.33641 1.98706 44 28 23
0.802717 -0.330807 1.94966 179 149 132
0.804144 -0.329207 1.96021 68 40 22
0.799626 -0.326998 1.94974 38 16 11
0.741153 -0.329018 1.9696 86 70 63
0.695338 -0.330031 1.99563 20 10 6
0.806215 -0.323445 1.95977 160 136 120
0.908934 -0.316314 2.00761 112 82 56
0.693431 -0.326995 2.00501 27 20 14
0.72665 -0.325074 1.97235 74 48 30
0.803644 -0.319967 1.9603 50 29 14
0.809019 -0.319875 1.95116 178 158 146
0.683643 -0.320713 2.03715 100 83 64
0.801325 -0.315426 1.95568 40 26 18
0.791315 -0.314213 1.96946 102 62 40
0.708404 -0.312559 2.03105 95 74 57
0.726873 -0.298248 1.98056 221 184 164
0.669035 -0.281765 2.01014 186 146 126
0.626155 -0.278816 2.06816 122 51 40
0.668125 -0.279563 1.98544 186 139 118
0.628188 -0.275789 2.05396 156 58 45
0.675698 -0.271265 1.98448 115 66 46
0.700361 -0.265876 1.94739 190 150 130
0.774746 -0.257658 1.94513 160 130 120
0.726097 -0.257658 1.9648 113 68 44
0.792187 -0.254451 1.94385 152 107 93
0.807794 -0.242447 1.95043 164 132 122
0.825621 -0.235516 1.95147 70 46 36
0.840493 -0.230877 1.96575 106 81 66
0.79982 -0.233073 1.9467 180 142 126
0.822896 -0.226513 1.95853 80 62 56
0.81311 -0.224524 1.9556 159 134 122
0.818756 -0.220353 1.96003 98 70 58
0.839774 -0.215629 1.97496 94 73 61
0.659704 -0.224392 2.01686 135 106 98
0.692367 -0.224694 1.98685 157 101 86
0.789136 -0.207303 1.96162 216 192 174
0.788138 -0.205903 1.95998 200 176 160
0.469681 -0.229537 1.96581 158 142 136
0.785566 -0.202854 1.96079 34 20 10
0.4688 -0.222405 1.97709 92 66 58
0.803074 -0.191536 1.98085 138 106 87
0.712539 -0.194325 1.97738 30 16 14
0.893099 -0.631225 1.89046 108 77 46
0.611807 -0.620136 1.96369 150 123 101
0.726017 -0.568885 1.78851 26 12 4
0.650389 -0.576546 1.83014 146 104 83
0.66817 -0.573195 1.8154 130 82 55
0.707877 -0.564519 1.79698 134 97 82
0.679601 -0.566297 1.80996 212 192 180
0.662832 -0.559817 1.79663 158 128 116
0.699073 -0.563255 1.81139 126 104 97
0.701985 -0.560392 1.79971 224 207 202
0.611839 -0.572516 1.87562 129 94 78
0.76288 -0.548899 1.79389 152 122 112
0.704266 -0.551933 1.81889 136 119 115
0.804634 -0.549981 1.80626 128 88 60
0.215922 -0.628878 2.17276 135 126 82
0.770422 -0.543821 1.7916 156 114 92
0.781246 -0.544547 1.79532 155 110 90
0.711026 -0.55127 1.8382 87 69 64
0.835494 -0.540628 1.82293 158 123 90
0.773344 -0.534178 1.80388 152 133 122
0.678355 -0.535562 1.81765 148 124 114
0.680359 -0.537743 1.83063 102 76 66
0.715994 -0.534061 1.81349 238 222 219
0.790365 -0.532322 1.80807 118 104 92
0.704221 -0.532327 1.81265 148 134 129
-0.0134157 -0.589428 2.09966 118 79 56
0.719198 -0.5322 1.82564 122 105 100
0.211906 -0.595962 2.15104 56 24 6
0.217138 -0.596367 2.15258 86 40 18
0.717555 -0.525946 1.81411 127 108 106
0.0420476 -0.588427 2.12401 135 98 73
0.0476321 -0.591405 2.14229 23 13 6
0.772141 -0.524208 1.81774 114 110 97
0.210222 -0.597546 2.18268 63 37 12
0.624731 -0.540352 1.90381 170 134 115
0.718605 -0.523618 1.82066 192 178 174
0.786048 -0.522487 1.81803 148 135 116
0.61706 -0.539184 1.90393 154 124 108
0.700266 -0.525373 1.83637 71 52 44
0.0479189 -0.586099 2.13959 128 93 70
0.0538312 -0.588838 2.15379 72 44 13
0.764845 -0.517555 1.80704 144 136 126
0.625082 -0.534452 1.89872 156 121 109
0.0487285 -0.573607 2.08694 48 20 4
0.723665 -0.519146 1.82694 88 72 68
0.220586 -0.575691 2.12369 107 35 14
0.220344 -0.572254 2.12165 102 30 10
0.785192 -0.513395 1.83358 154 140 132
0.777748 -0.508564 1.80988 151 136 120
0.795993 -0.509797 1.8189 170 146 134
0.766908 -0.509398 1.8229 118 102 88
0.694516 -0.535667 2.03353 130 104 61
0.866556 -0.505871 1.98393 136 122 86
0.244421 -0.537922 2.14802 207 153 122
0.890968 -0.508202 2.04926 46 29 22
0.850076 -0.497163 1.97753 82 57 46
0.756036 -0.489219 1.94264 130 112 102
0.729635 -0.482796 1.89842 104 93 77
0.880599 -0.487388 2.02048 146 119 88
0.678339 -0.493664 2.04236 150 138 94
0.733435 -0.476158 1.92191 154 116 100
0.734684 -0.468376 1.90147 156 126 113
0.666 -0.484543 2.0245 104 36 16
0.708181 -0.469943 1.9143 199 130 106
0.703006 -0.46887 1.9167 124 26 18
0.875582 -0.472106 2.00961 94 82 66
0.192915 -0.521258 2.29865 96 74 34
0.748493 -0.460959 1.91267 172 120 92
0.71614 -0.462067 1.98202 100 88 68
0.760475 -0.449231 1.91249 54 28 14
0.729789 -0.447068 1.90658 98 37 19
0.804545 -0.444531 1.89658 123 98 58
0.717823 -0.447301 1.91095 121 26 2
0.750447 -0.446819 1.91987 148 90 70
0.759896 -0.445602 1.92029 130 81 62
0.787052 -0.440036 1.89119 180 146 121
0.68559 -0.455077 2.03332 46 20 7
0.730031 -0.442882 1.913 166 87 62
0.667131 -0.453352 2.01726 136 87 66
0.187418 -0.491965 2.27612 124 74 44
0.709674 -0.43989 1.92549 35 8 4
0.729912 -0.4399 1.93578 172 74 44
0.786854 -0.431586 1.90601 182 134 109
0.713657 -0.430662 1.9248 36 33 34
0.793356 -0.425736 1.89631 132 107 89
0.192617 -0.473241 2.22641 126 84 60
0.670084 -0.438958 2.01882 162 122 103
0.802545 -0.424801 1.90035 52 37 25
0.649083 -0.439505 2.04616 110 83 59
0.731298 -0.426185 1.92146 47 34 35
0.691219 -0.432597 2.03993 20 8 4
0.676114 -0.430518 2.02825 54 20 6
0.649615 -0.431909 2.05491 95 69 45
0.682809 -0.428157 2.03358 97 62 43
0.705251 -0.427001 2.05397 12 10 4
0.665671 -0.424369 2.02479 46 14 4
0.207369 -0.445511 2.08911 140 90 62
0.657994 -0.424025 2.03135 61 25 14
0.736888 -0.412402 1.9083 72 60 55
0.802085 -0.409762 1.92727 133 90 72
0.811632 -0.408913 1.91825 172 138 120
0.814041 -0.407191 1.91695 73 34 20
0.779275 -0.403845 1.91987 162 118 97
0.749977 -0.416219 2.09902 143 128 104
0.712482 -0.400635 1.92586 64 56 56
0.177328 -0.428735 2.07204 126 78 64
0.777119 -0.384738 1.91956 89 44 26
0.660207 -0.374056 2.10359 126 100 88
0.789037 -0.344375 1.96684 120 97 80
0.796177 -0.342055 1.96518 38 16 7
0.692915 -0.344703 1.97853 101 54 34
0.696894 -0.343567 1.9671 156 123 103
0.787431 -0.338079 1.96626 24 12 6
0.706065 -0.339316 1.98808 51 26 13
0.733493 -0.337483 1.96712 74 54 42
0.717171 -0.335417 1.97442 118 88 72
0.726145 -0.337376 1.96349 182 158 141
0.799205 -0.328301 1.94768 30 7 3
0.68751 -0.329651 1.9804 24 12 6
0.728146 -0.32837 1.96605 170 145 130
0.685338 -0.3206 2.03867 86 71 52
0.7305 -0.316026 1.99588 110 80 62
0.702491 -0.313813 2.02259 94 75 58
0.786257 -0.304457 1.95655 178 157 146
0.872886 -0.296401 1.99957 35 12 4
0.718788 -0.300267 1.96699 167 131 111
0.711098 -0.285432 1.96202 152 112 90
0.624712 -0.282817 2.08995 106 83 66
0.633448 -0.281185 2.09758 163 134 116
0.653 -0.284441 1.97542 200 160 138
0.669279 -0.279349 1.98646 180 132 111
0.626914 -0.275871 2.05175 178 81 70
0.708741 -0.263689 1.96236 190 150 130
0.727266 -0.262458 1.94816 160 114 93
0.717588 -0.260342 1.94949 112 66 41
0.663607 -0.253179 1.97491 136 96 82
0.788417 -0.242667 1.95798 192 160 146
0.827265 -0.232856 1.95579 55 33 22
0.816179 -0.227218 1.95645 27 9 4
0.825968 -0.225851 1.96185 139 120 111
0.813455 -0.224085 1.95791 166 137 122
0.817312 -0.220875 1.95611 93 68 56
0.847744 -0.214081 1.98351 87 68 54
0.69993 -0.222995 1.99921 161 105 90
0.834854 -0.213184 1.96878 168 146 132
0.466094 -0.21922 1.97996 131 113 102
0.675055 -0.191825 2.01488 191 165 156
0.62162 -0.645119 1.97803 106 70 32
0.728495 -0.571591 1.795 13 8 5
0.814699 -0.57404 1.83215 38 18 8
0.697623 -0.550034 1.7879 198 182 178
0.704578 -0.560345 1.84158 140 120 112
0.790479 -0.546537 1.79235 123 82 54
0.623305 -0.590468 1.98901 103 95 68
0.755672 -0.540194 1.77382 147 104 83
0.78133 -0.544198 1.79582 164 121 101
0.681825 -0.537631 1.81197 93 70 61
0.713262 -0.537535 1.81845 196 178 176
0.771351 -0.533331 1.80207 152 134 123
0.710511 -0.537856 1.82534 77 62 56
0.674896 -0.535926 1.8216 100 72 62
0.70095 -0.53534 1.82468 100 84 78
0.782127 -0.5305 1.79858 128 114 104
0.71117 -0.534383 1.82351 148 134 128
0.217058 -0.607931 2.18356 172 116 86
0.716724 -0.530674 1.82184 109 92 86
0.681063 -0.523525 1.79205 156 142 137
0.799301 -0.528409 1.82181 153 138 128
0.714477 -0.524941 1.80899 122 104 100
0.773784 -0.524912 1.81908 100 99 85
0.211203 -0.601428 2.19879 68 48 20
0.665826 -0.522654 1.81633 191 176 170
0.70436 -0.519159 1.79965 178 162 160
0.748746 -0.520838 1.81352 133 28 30
0.0424607 -0.579977 2.1246 48 21 7
0.785832 -0.512593 1.83533 157 142 134
0.788498 -0.511438 1.82269 153 135 122
0.803459 -0.511368 1.82854 167 144 131
0.0356522 -0.560756 2.12363 124 70 52
0.326984 -0.560789 2.15228 152 140 100
0.702246 -0.521884 1.9678 128 102 64
0.851914 -0.510284 1.96905 31 16 4
0.226248 -0.547433 2.14864 150 136 92
0.233204 -0.549176 2.16851 72 30 9
0.856563 -0.504158 1.96917 142 130 89
0.243887 -0.539065 2.15521 204 152 121
0.720143 -0.495188 1.96863 96 79 62
0.851895 -0.49546 1.99165 20 10 2
0.722117 -0.49572 1.98857 89 86 54
0.759174 -0.486111 1.94824 89 76 58
0.678344 -0.49409 2.04168 149 138 93
0.710283 -0.484784 1.97321 80 86 56
0.724526 -0.481037 1.99526 138 128 96
0.705646 -0.469531 1.91091 189 124 99
0.203911 -0.519855 2.2678 124 88 52
0.748412 -0.461324 1.9119 172 120 92
0.864453 -0.468821 1.99614 90 76 66
0.192053 -0.520071 2.297 88 60 22
0.755618 -0.459933 1.91079 168 118 98
0.730727 -0.465335 1.98058 94 66 54
-0.0560346 -0.501921 2.17767 136 114 90
0.751059 -0.44794 1.89955 66 34 18
0.718726 -0.446609 1.91196 110 14 0
0.176414 -0.497601 2.27824 69 30 8
0.165521 -0.497007 2.2845 77 40 13
0.709237 -0.444197 1.92791 168 123 110
0.675013 -0.453415 2.02344 148 102 78
0.779088 -0.430489 1.89535 184 132 106
0.205772 -0.465263 2.1179 112 70 40
0.782743 -0.426451 1.90446 154 82 52
0.682943 -0.438408 2.03071 114 74 47
0.706858 -0.429355 1.93607 34 20 15
0.681856 -0.437012 2.03915 92 55 38
0.730825 -0.425576 1.91925 60 46 46
0.781476 -0.420941 1.908 178 120 92
0.820257 -0.419816 1.9079 58 36 9
0.711429 -0.431236 2.05441 149 154 146
0.696464 -0.428499 2.03809 10 8 5
0.186911 -0.444661 2.07918 122 78 53
0.208036 -0.444677 2.09681 140 90 62
0.65658 -0.42344 2.03277 69 32 22
0.833418 -0.407262 1.93519 178 150 130
0.765114 -0.404238 1.92793 133 74 50
0.714439 -0.401087 1.92863 65 58 58
0.743948 -0.407265 2.08324 60 46 21
0.71066 -0.404373 2.10277 78 52 26
0.742394 -0.403439 2.11918 158 144 120
0.193341 -0.417479 2.09409 84 34 18
0.777934 -0.384981 1.92102 106 63 44
0.801025 -0.35183 1.97716 46 18 7
0.714279 -0.344287 1.98468 122 90 70
0.708469 -0.34402 2.01643 158 105 82
0.684662 -0.345411 1.96256 106 58 38
0.715053 -0.341918 2.04033 72 50 40
0.785943 -0.337449 1.965 25 13 7
0.705071 -0.33946 1.98721 41 18 4
0.808563 -0.331181 1.96035 184 156 136
0.712913 -0.336153 1.96932 118 89 73
0.72403 -0.332715 1.94705 173 152 141
0.794045 -0.324026 1.9384 173 146 131
0.818743 -0.325334 1.96302 178 155 140
0.867599 -0.319533 1.98322 68 32 12
0.805259 -0.317969 1.96097 28 16 10
0.803151 -0.317808 1.93723 28 18 9
0.68958 -0.320441 2.04666 97 81 63
0.729506 -0.310963 2.00056 154 122 102
0.411679 -0.31987 2.29012 97 76 42
0.717585 -0.283656 1.97202 105 60 38
0.629098 -0.277881 2.10341 94 73 54
0.645294 -0.286092 1.9599 196 158 136
0.630105 -0.275197 2.05872 215 118 108
0.705414 -0.264295 1.95566 176 136 116
0.728636 -0.262165 1.95014 170 124 103
0.77493 -0.246316 1.9365 206 176 161
0.804343 -0.243832 1.94405 158 132 126
0.838522 -0.237561 1.96397 175 152 138
0.836819 -0.234675 1.95573 92 60 44
0.833566 -0.230538 1.96809 49 28 20
0.694094 -0.235803 2.03373 237 223 216
0.816992 -0.226693 1.95627 29 12 7
0.814226 -0.223489 1.95875 182 154 136
0.691966 -0.227718 1.99594 182 152 145
0.722119 -0.215803 2.03883 140 76 67
0.793506 -0.206279 1.96739 229 204 187
0.781906 -0.204941 1.96413 44 28 22
0.466424 -0.231382 1.95664 151 134 128
0.77288 -0.194038 1.96703 157 128 120
0.722391 -0.59964 1.8456 36 22 12
0.610508 -0.614676 1.93624 138 113 82
0.605927 -0.615315 1.94817 137 113 92
0.62287 -0.624006 1.99823 102 77 38
0.729513 -0.57167 1.79828 26 13 6
0.712981 -0.562025 1.79753 221 194 182
0.699596 -0.563457 1.81216 142 119 112
0.709593 -0.563964 1.81063 192 172 168
0.683301 -0.556849 1.80793 76 54 46
0.731793 -0.568203 1.85286 73 56 50
0.801146 -0.555785 1.79816 141 110 91
0.618792 -0.573656 1.88887 124 88 68
0.702327 -0.550905 1.79925 187 170 168
0.757197 -0.547779 1.7908 159 136 128
0.765168 -0.543872 1.79018 135 90 72
0.786855 -0.54578 1.79564 102 56 28
0.699446 -0.549884 1.82364 80 59 54
0.768974 -0.541752 1.80468 137 104 92
0.615914 -0.564141 1.9279 82 68 58
0.706054 -0.536916 1.82199 136 120 114
0.720404 -0.539124 1.82934 192 174 172
0.765569 -0.532425 1.79782 155 134 128
0.681178 -0.532017 1.82669 116 92 82
0.210821 -0.596526 2.16453 52 30 12
0.774003 -0.525404 1.82084 111 107 94
0.737397 -0.530073 1.85471 164 148 146
0.78156 -0.52133 1.81295 138 128 108
0.789338 -0.520092 1.81471 106 108 94
0.635825 -0.538899 1.92051 158 124 112
0.691212 -0.525055 1.85424 95 73 64
0.698704 -0.52787 1.87249 95 70 62
0.805225 -0.514493 1.82624 140 108 87
0.793177 -0.510325 1.8176 154 132 121
0.0375463 -0.55798 2.0741 172 112 92
0.686475 -0.532365 2.0035 90 34 8
0.689456 -0.518974 1.94653 118 88 52
0.696754 -0.528705 2.05622 150 142 96
0.800783 -0.500657 1.8932 90 80 56
0.697276 -0.526237 2.07065 136 114 70
0.297974 -0.54236 2.14569 132 86 66
-0.0252369 -0.538264 2.11347 115 76 57
0.801801 -0.488613 1.91763 44 26 16
0.879177 -0.5014 2.00703 52 28 12
0.7257 -0.48774 2.00317 115 118 78
0.732472 -0.483395 1.96534 168 134 126
0.672373 -0.48612 2.03985 120 58 34
0.713423 -0.467091 1.89682 122 15 8
0.638227 -0.480141 2.01725 92 57 20
0.742191 -0.459798 1.90407 188 135 109
0.190791 -0.515366 2.26921 94 62 26
0.702376 -0.47069 2.022 66 30 16
0.748971 -0.47499 2.0964 99 69 32
0.829829 -0.44896 1.92405 130 106 66
0.159491 -0.504257 2.2919 160 146 120
0.646647 -0.458828 1.9981 127 92 74
0.144278 -0.49906 2.24752 100 64 35
0.175877 -0.497042 2.27922 68 28 8
0.711312 -0.446451 1.93723 164 128 113
0.165987 -0.500224 2.33138 69 32 8
0.673461 -0.453728 2.02226 152 102 78
0.725626 -0.441964 1.91081 172 84 57
0.683229 -0.462925 2.14307 154 127 104
0.215619 -0.47484 2.13948 123 77 48
0.714774 -0.43854 1.92116 166 71 45
0.184061 -0.471837 2.18491 60 19 6
0.192077 -0.467703 2.14856 133 91 66
0.705185 -0.429142 1.91119 91 87 88
0.790868 -0.42741 1.91826 174 98 69
0.806145 -0.426354 1.91111 118 100 86
0.732896 -0.426583 1.92629 28 18 18
0.772325 -0.419745 1.89536 180 122 93
0.833509 -0.420464 1.92825 114 90 62
0.675536 -0.432835 2.04396 150 118 100
0.676241 -0.431936 2.02998 68 35 19
