ply
format ascii 1.0
element vertex 1316
property float x
property float y
property float z
property uchar red
property uchar green
property uchar blue
end_header
-1.85064 0.307774 1.17067 197 198 192
-0.378659 -0.780866 1.89123 80 80 68
-0.436518 -0.642466 1.8989 30 30 24
-0.338417 -0.244522 2.2358 70 66 56
0.00480822 -0.0607477 1.96499 84 83 76
0.0578185 -0.0260729 1.97233 4 2 0
0.0414413 0.0289801 1.93985 100 84 46
-0.455578 0.168932 2.19885 70 67 52
0.141968 0.527777 2.63652 1 2 4
-0.715114 0.153985 1.85936 20 16 7
-0.492252 0.254067 1.91559 184 154 54
-0.41675 0.36522 1.94062 117 116 108
-0.206337 0.485755 1.98222 14 8 0
0.226817 0.701431 2.10366 79 40 3
-0.723309 0.32436 1.73395 203 171 38
0.185175 0.761462 2.18451 202 166 52
-0.925231 0.354446 1.80313 4 4 2
-0.00852352 0.671034 2.00128 122 68 4
-1.5886 0.333147 1.98654 42 42 37
-0.405961 0.792139 1.84226 97 82 44
0.0596408 1.13982 2.28714 134 134 128
-0.930892 0.554771 1.36381 64 62 52
-0.253961 0.918137 1.67674 182 156 38
-1.07436 0.678716 1.46531 72 70 61
-0.438911 -0.84026 1.84401 85 82 72
0.0479267 -0.071761 1.98065 4 4 2
0.0563457 -0.0495262 1.97293 3 5 2
0.193754 0.474704 2.47666 55 48 23
-0.639188 0.148123 1.91565 82 82 69
-0.224285 0.295635 1.97073 96 95 89
-0.743265 0.173412 1.96972 19 18 8
-0.558622 0.291624 1.73933 141 94 1
-1.34155 0.276092 1.73956 41 41 36
0.0946081 0.71499 2.02322 196 161 18
-0.597683 0.462282 1.75279 60 60 58
0.188642 0.932531 2.31775 112 86 24
0.225256 1.02576 2.26363 148 120 47
-0.315841 0.784514 1.91915 132 98 16
-1.35973 0.501518 1.63549 201 202 196
-0.955768 0.540919 1.46925 39 38 30
0.0197697 0.967216 1.86484 19 18 14
-1.9612 0.369424 1.23228 112 112 102
-0.788371 0.681315 1.38381 150 141 122
-0.383688 -0.780845 1.98808 145 143 129
-0.37999 -0.780583 1.90027 45 42 38
-0.158633 -0.329581 2.05587 82 78 70
-0.125631 -0.236476 2.07615 64 62 62
-0.090729 -0.207915 2.06141 70 70 65
-0.0728229 -0.137228 2.32818 118 104 52
-0.0315081 -0.0312171 1.95034 80 80 70
-0.0626134 -0.00769098 1.97686 56 52 48
-0.0465731 0.00328347 1.96677 137 135 126
0.138361 0.575534 2.694 82 82 78
-0.0297365 0.489763 2.57551 62 60 44
0.293134 0.633381 2.27142 110 103 84
-0.988968 0.333412 1.8967 8 7 4
-0.149072 0.561737 1.86028 50 34 0
-0.869207 0.404775 1.80689 104 103 98
-0.0697736 0.639038 1.91106 148 93 2
-0.6133 0.718966 2.18832 140 141 133
-0.704378 0.814906 1.96978 8 6 4
-1.85382 0.209503 1.1711 66 66 64
-0.124314 0.970246 1.899 90 76 32
-1.25801 0.720676 1.50903 136 138 130
0.23981 1.27544 2.06072 105 104 98
-0.472052 -0.847043 1.85182 128 126 115
-0.459189 -0.695062 1.69029 40 38 28
-0.14535 -0.27997 2.01807 6 4 2
-0.156496 -0.26987 1.99473 7 4 2
-0.122815 -0.238851 2.0677 42 40 40
-0.0819481 -0.148188 2.34771 90 74 46
-0.117938 0.440277 2.4781 11 7 2
-0.212497 0.293586 2.12041 88 50 0
0.15471 0.576048 2.63369 60 60 54
0.135295 0.576896 2.18434 45 39 18
-0.325036 0.436739 2.09294 36 36 31
-0.54925 0.27795 1.64349 94 68 3
0.244118 0.655569 2.07203 134 96 6
0.257373 0.696083 2.05078 71 42 2
0.117014 0.573728 1.81785 60 25 2
0.276042 0.725115 2.07481 65 60 34
-0.948304 0.326175 1.76946 5 4 2
-0.147039 0.563576 1.88221 41 24 0
-0.349441 0.592204 1.86075 73 73 67
-0.267212 0.810171 1.92878 63 30 0
-1.27724 0.529607 1.53562 2 1 0
-0.47088 -0.884653 2.00785 99 96 86
-0.410127 -0.775315 2.00692 27 24 15
-0.0948554 -0.323548 1.95433 56 53 47
-0.133603 -0.269051 2.2045 162 160 149
-0.118213 -0.255154 2.16637 5 3 0
0.0291786 0.508869 2.52264 13 4 2
-0.544868 0.324092 2.0727 124 120 108
-0.0232978 0.533159 2.18546 3 2 2
0.26785 0.734873 2.07152 147 130 40
-0.371513 0.541263 1.85911 36 28 16
0.238881 0.888577 2.2946 107 101 77
-0.577198 0.665648 2.05398 123 122 115
0.221188 0.957513 2.28402 108 78 18
-1.82795 0.204213 1.17931 70 71 64
0.197102 1.30948 2.07771 42 42 38
-0.425296 -0.813494 2.07662 56 54 44
-0.551368 -0.838462 2.03965 13 10 8
-0.129468 -0.302217 1.97265 20 18 14
-0.0740696 0.0660003 1.97394 103 82 52
-0.156828 0.326058 2.06242 42 26 14
-0.558127 0.312731 2.07896 42 35 8
-0.258274 0.449633 2.13057 144 108 49
-0.426656 0.413483 2.02066 14 10 2
0.296502 0.671927 2.06126 73 52 9
0.0194732 0.583582 1.9402 155 132 39
-2.05782 0.0550133 1.75264 76 76 70
-0.330791 0.852917 2.04435 76 40 0
-0.6778 0.799289 1.91256 42 42 38
-0.565967 1.06239 1.9217 106 106 97
-0.446331 -0.801848 1.92785 2 1 0
-0.641447 -0.806608 1.82219 41 41 34
-0.497343 -0.655364 1.9993 44 44 38
-0.175097 -0.263988 2.01984 24 18 12
-0.0684454 0.0300979 2.04136 138 136 132
0.13696 0.53651 2.67233 34 38 22
-0.241807 0.219796 2.02848 172 168 166
-0.189566 0.327657 2.21945 184 138 46
-0.375462 0.422886 2.27087 22 18 10
0.137416 0.593574 2.26252 5 3 3
0.215716 0.794 2.2432 76 68 42
-1.55276 0.360012 2.08109 221 222 216
-0.8962 0.593285 2.19198 100 96 92
0.31012 0.942116 1.70891 136 134 118
0.156573 1.36968 2.12132 110 110 102
0.137942 1.40215 2.10749 75 73 62
-0.233828 1.30156 1.98795 60 61 52
-0.0616258 -0.196459 2.29226 80 76 63
-0.100195 0.224693 2.12697 122 85 27
-0.251904 0.210396 1.9876 104 104 99
0.0225639 0.194964 1.67958 84 46 1
-0.110917 0.48163 2.55164 2 3 3
-0.100888 0.376105 2.17232 27 12 0
-0.555324 0.2996 2.07295 61 48 18
-0.491948 0.337224 1.66075 12 10 10
-2.07902 0.105084 1.71814 24 24 20
-0.848222 0.571737 2.11783 66 65 58
-0.376381 0.548764 1.85076 35 24 16
-0.613463 0.688461 2.12177 131 130 128
-0.146888 0.711286 1.89627 54 26 1
-0.696474 0.969834 2.14397 136 132 125
0.293464 1.14577 2.05651 10 8 5
-0.534765 -0.832541 1.92503 16 14 9
-0.440048 -0.681125 1.95433 2 2 1
-0.0446958 -0.14407 2.00581 46 46 42
-0.117856 -0.061146 1.95181 78 78 76
-0.161104 0.403681 2.04138 175 135 31
-0.284622 0.376654 1.94696 44 44 38
-0.283964 0.490125 2.12462 10 5 0
0.331018 0.66969 2.05376 104 86 22
0.376223 0.868248 1.53101 137 135 116
0.224008 1.27362 2.05977 4 2 2
-0.0691059 -0.224075 2.09146 3 1 0
-0.348347 0.0970765 2.05633 16 14 11
0.0814486 0.488697 2.61221 116 96 26
0.0145661 0.486083 2.6022 175 153 90
-0.869494 0.428986 1.9654 6 2 2
-1.32249 0.494772 1.49673 208 208 202
-0.503941 -0.878687 2.01016 138 133 126
-0.343577 -0.786686 1.8101 78 76 70
-0.297438 -0.166452 2.04097 158 157 153
-0.184956 -0.17382 1.77077 142 142 136
-0.041283 -0.0151885 2.04925 22 20 16
-0.781587 0.215756 2.69071 185 174 134
-0.125661 0.290635 2.15875 99 51 0
-0.118988 0.440733 2.47865 6 4 1
-0.181936 0.351198 2.2066 24 4 0
-0.0552959 0.47601 2.0923 66 65 49
-0.546659 0.201224 1.55259 68 48 4
-0.366311 0.156589 1.28595 124 111 86
-0.58453 0.285427 1.70025 102 76 6
-0.806842 0.384484 1.8431 66 62 52
-0.503651 0.415258 1.70787 150 106 1
-0.876034 0.582652 2.16344 149 148 144
-1.40745 0.453296 1.95521 120 118 110
0.206054 1.07287 2.30828 200 194 170
-1.20543 0.483022 1.44882 61 61 56
-1.31339 0.508213 1.50015 148 148 141
-0.707395 0.971434 2.16243 136 134 128
-0.104133 0.946724 1.86874 104 90 34
-0.828962 0.891282 1.81861 86 82 75
0.248445 1.25449 2.06091 98 96 93
-0.445247 -0.817902 2.1114 59 56 43
-0.487217 -0.682723 1.72633 24 22 14
-0.459389 -0.655913 1.69865 136 136 131
-0.146432 -0.291212 1.99645 35 35 30
-0.224903 -0.278921 2.08602 64 61 50
-0.289982 -0.274583 2.18688 140 136 124
-0.224433 -0.264369 2.08289 76 74 64
-0.235506 -0.233798 2.04447 78 78 70
-0.262024 -0.2216 2.03193 42 40 36
-0.630656 0.0147582 2.81511 122 122 117
-0.0988981 -0.0225062 1.97996 35 34 32
-0.0475064 0.0149339 2.00107 18 14 10
-0.184859 0.0522556 2.12405 62 52 35
-0.29958 0.0249028 2.1321 62 57 54
-0.129173 0.0290748 1.93223 158 155 150
-0.413956 0.0710327 2.30749 130 126 121
-0.311529 0.0655637 2.13149 167 164 157
-0.352286 0.0893666 2.17272 23 20 16
-0.133551 0.0917786 1.96778 132 126 114
-0.714404 0.181042 2.01187 110 108 101
-0.273217 0.445209 2.16477 84 42 0
-0.26729 0.453185 2.13668 155 126 60
-0.600356 0.223149 1.64503 58 37 0
0.3267 0.738792 2.13342 96 80 12
-0.819179 0.382107 1.8563 64 58 40
0.106907 0.66643 2.00938 112 90 16
-1.0789 0.418366 1.64987 20 18 14
-0.621819 0.687663 1.87936 28 28 26
0.21795 1.06288 2.26481 126 120 105
-0.110745 0.854987 1.90483 219 185 24
-0.386816 0.785965 1.80068 144 126 61
-0.436317 -0.876845 2.00811 134 132 120
-0.395137 -0.827026 2.01313 149 146 140
-0.145172 -0.327857 2.04069 74 70 61
-0.199111 -0.241491 1.97947 86 85 77
-0.346023 -0.217184 2.19431 28 27 22
-0.0282572 -0.0505983 1.94499 18 16 12
-0.124912 -0.0663098 1.96514 72 72 70
-0.0388095 -0.0409872 1.69916 4 2 1
-0.0622753 0.0184719 1.88387 62 51 34
-0.392583 0.0472606 2.30923 22 17 14
-0.642405 -0.0796007 2.09973 78 76 70
-0.133124 0.0313493 1.9414 164 160 156
-0.140511 0.091333 1.98098 117 109 96
-0.304228 0.0798075 2.07168 11 8 4
-0.358645 0.122421 2.10651 6 4 3
-0.58802 0.165216 2.36052 186 177 154
-0.659051 0.0889142 2.18281 133 117 67
0.086653 0.525203 2.27264 169 148 37
-0.281604 0.43833 2.19157 83 42 0
0.244766 0.668174 2.39962 29 22 3
-0.000905096 0.525345 2.17147 56 54 52
0.303526 0.742339 2.04981 96 82 20
-0.7172 0.518563 1.93707 118 117 112
-0.617226 0.478912 1.78772 129 128 124
-0.335947 0.558881 1.8378 120 120 112
-1.80409 0.263005 1.11706 15 15 14
-0.153072 0.993992 1.92928 29 14 0
0.298071 1.13979 2.05892 57 56 50
-0.344568 1.13268 2.09542 138 128 113
-0.489398 -0.888136 2.02122 106 102 94
-0.460531 -0.862188 2.10602 46 42 36
-0.470621 -0.847367 2.15086 162 160 152
-0.574284 -0.773464 1.75401 60 58 49
-0.238549 -0.281119 2.13061 38 36 24
-0.237693 -0.280184 2.08251 158 155 142
-0.22713 -0.231843 1.97541 25 24 20
-0.276216 -0.0293708 2.26973 116 115 113
-0.0376406 0.00365804 1.99584 11 7 4
-0.0505619 -0.00174494 1.97514 140 138 132
-0.27954 0.0819505 2.341 60 46 26
-0.192121 0.0508282 2.04862 167 164 159
-0.365451 0.0776188 2.23781 170 166 160
-0.313658 0.0996137 2.26335 174 172 164
-0.304004 0.0755653 2.07805 20 16 12
-0.241632 0.0868023 1.89061 6 4 4
-0.43227 0.0424355 1.82496 144 124 62
-0.457475 0.0534712 1.82024 74 70 58
-0.11144 0.33266 2.20032 232 194 45
-0.188942 0.350094 2.21442 41 20 0
-0.130315 0.367168 1.94509 178 138 28
0.224899 0.681571 2.46016 10 7 4
-0.0608616 0.47133 2.04016 48 50 37
-0.226883 0.451244 2.00956 52 42 20
-0.578983 0.668512 2.05565 143 142 136
-0.178703 1.29453 2.20638 206 205 192
0.234975 1.2772 2.06747 18 17 12
-0.450434 -0.858487 2.0888 46 42 36
-0.412746 -0.828375 2.00782 4 2 1
-0.364759 -0.802933 1.96972 64 61 49
-0.31794 -0.729401 1.8111 0 0 0
-0.419395 -0.665099 1.92035 4 4 3
-0.196243 -0.303745 2.1011 26 22 16
-0.150607 -0.255902 2.23513 14 14 10
-0.0888999 -0.209076 2.18372 2 0 8
-0.451083 0.159025 2.23998 134 130 120
-0.584884 0.126441 1.85791 74 72 64
-0.211448 0.333424 2.1509 34 12 0
-0.190492 0.285985 1.91022 176 176 166
-0.264236 0.424312 2.20603 168 127 24
-0.242945 0.420524 2.11515 83 42 0
-0.303051 0.492577 2.16042 28 20 2
-0.0291718 0.63311 1.93703 143 92 4
-0.42936 0.575283 1.95506 20 12 0
-0.563327 0.659544 2.04073 94 94 83
0.132205 1.15116 2.51725 165 152 109
-0.233277 0.820985 1.91558 124 82 2
0.20258 1.11074 2.09568 127 128 122
0.221248 1.15862 2.07008 177 178 174
-0.461354 -0.865974 2.09853 66 62 56
-0.496561 -0.870872 2.01553 7 4 2
-0.529117 -0.648437 2.04977 70 68 62
-0.208526 -0.25148 1.9896 66 63 53
-0.328068 -0.168926 2.17556 10 9 6
-0.358011 -0.158074 2.13667 104 102 99
-0.366104 -0.00874208 2.44824 128 128 126
-0.14452 0.0372073 1.94033 84 80 76
-0.334356 0.0581243 2.16424 176 172 168
-0.515341 0.182548 2.30193 124 116 99
0.146057 0.524144 2.62948 43 42 30
0.0219331 0.233206 1.77471 182 130 34
0.322928 0.689264 2.24891 142 136 106
-0.148239 0.484471 1.95757 134 112 20
0.338968 0.755237 2.13913 173 151 40
-0.571602 0.314947 1.55043 24 13 0
-0.896069 0.334247 1.74979 2 0 0
-0.567852 0.468748 1.77119 11 7 1
-0.571323 1.02371 1.93546 165 166 158
-0.832664 0.6761 1.37121 212 210 194
-0.565403 1.05998 1.91857 117 118 110
0.0514313 1.31284 2.01007 198 196 184
-0.301252 -0.835152 1.79901 64 62 53
-0.461417 -0.839718 1.88326 89 86 76
-0.374442 -0.802192 1.72979 23 20 14
0.0666931 -0.0526606 1.95173 4 2 2
-0.209966 0.0271486 1.92947 175 171 166
-0.840922 0.250283 2.68005 194 172 75
-0.128148 0.290259 2.13309 110 59 1
-0.0441992 0.493264 2.65646 18 12 10
-0.609013 0.133926 2.02999 150 128 55
-0.588531 0.196093 2.11918 195 162 37
-0.0423538 0.293621 1.96564 178 135 28
-0.0616731 0.365594 2.14302 14 10 4
-0.619913 0.17826 1.97598 158 134 51
0.264709 0.637055 2.32676 20 17 13
0.311836 0.768099 2.23909 176 148 28
-0.123343 0.882903 1.97416 36 23 2
-0.685269 0.823407 1.62682 124 120 112
-0.940756 0.890252 1.47192 22 21 16
-0.401729 -0.800158 1.94832 75 72 62
-0.0148515 -0.00774219 1.97572 4 0 0
0.022305 0.0267478 2.01166 140 126 72
-0.121691 0.0493513 2.02366 88 68 29
-0.21823 0.0133031 1.97092 118 114 108
-0.39754 0.0778569 2.20775 12 9 6
-0.0209293 0.271336 1.9048 190 148 50
0.00147573 0.544732 2.66264 30 20 8
-0.592513 0.266853 2.06042 186 154 44
0.323411 0.749754 2.19859 182 153 28
-0.947509 0.35547 1.59726 18 18 14
-0.968961 0.792111 1.43795 96 93 84
-0.00124989 1.18871 1.81179 152 150 142
-0.691348 0.198849 2.03641 15 6 4
0.0415046 0.629395 1.97435 62 28 2
-0.651981 0.743359 2.00574 92 90 85
-0.31849 0.717666 1.80812 60 44 12
-0.127792 0.944651 1.9087 158 132 18
0.15396 1.10892 2.12355 182 186 176
-0.440217 -0.817404 1.79147 56 52 44
-0.176368 -0.26932 2.03715 7 6 2
-0.240635 -0.262974 2.11772 76 71 64
-0.323087 -0.242856 2.17934 23 20 12
0.0633565 -0.043591 1.99358 82 80 75
-0.0266944 -0.0130106 1.95387 8 4 2
-0.430227 0.0615272 2.38949 153 148 142
-0.655942 -0.0770139 2.11506 61 59 54
-0.362325 0.0960811 2.19264 16 13 10
-0.364458 0.136615 2.10375 170 169 160
-0.483082 0.162293 2.26234 125 121 112
0.146572 0.584734 2.66486 120 120 114
-0.121795 0.350505 2.19556 62 42 2
-0.272276 0.386125 2.31453 30 16 2
0.188351 0.578782 2.40829 39 37 32
-0.244249 0.417268 2.12165 90 50 1
-0.236418 0.427375 2.09052 90 55 0
0.317728 0.781527 2.12477 206 193 134
-0.636251 0.6605 1.88197 34 34 32
-0.229838 -0.321482 2.21942 55 50 40
-0.296696 -0.0494231 2.1866 92 90 86
0.105403 0.438437 2.34026 186 176 152
0.012801 0.552977 2.58252 94 73 27
0.256419 0.655793 2.37025 18 12 5
-0.484014 0.584939 2.49734 60 50 26
0.287851 0.781069 2.20985 168 145 54
-0.682455 0.342356 1.69368 42 33 1
0.213725 0.714937 2.04519 132 90 4
-0.0199596 1.05131 1.86234 158 162 160
-0.569432 -0.891151 2.29296 64 60 53
-0.606506 -0.868352 1.79941 158 156 146
-0.199684 -0.330533 2.12975 132 126 114
0.0174527 -0.0402963 1.81781 17 14 12
-0.405003 0.0780935 2.29242 171 167 162
-0.478841 0.160442 2.25796 34 31 26
-0.586322 0.191489 2.27497 178 157 77
-0.0335399 0.459739 2.58388 164 140 38
-0.325119 0.414985 2.50736 30 8 0
-0.236763 0.368573 2.23676 20 10 2
0.341721 0.722144 2.09256 92 78 18
0.387916 0.666085 1.88997 121 112 52
0.271948 0.830104 2.2733 178 158 72
0.25639 1.00383 2.12189 24 24 16
-0.00645922 1.08075 1.94622 131 135 128
0.238368 1.27116 2.05967 3 3 1
-0.596416 -0.865832 1.78658 121 117 108
-0.336632 0.0325915 2.20297 12 8 4
-0.270652 0.358808 2.26561 50 24 4
-0.126985 0.382467 2.20515 30 18 4
0.116406 0.658174 1.98473 120 100 15
-0.479323 0.42023 1.63053 17 8 1
-0.362316 0.939367 1.75455 175 150 48
0.253804 1.24793 2.05959 74 72 70
-0.491392 -0.879404 1.97902 170 165 154
0.0453915 -0.175933 2.03967 81 72 46
-0.211144 -0.04611 2.13783 109 108 106
-0.1729 0.0534972 2.11727 74 60 37
-0.496554 0.0825016 1.86993 32 26 13
-0.0262462 0.455751 2.57283 160 137 33
-0.111434 0.345902 2.18814 74 54 4
0.246328 0.848929 2.26624 30 22 0
-0.700467 0.971127 2.14801 132 129 121
-0.413876 -0.669992 1.90791 2 2 1
-0.474827 0.135271 2.351 3 0 0
-0.279002 0.0873883 1.95768 4 2 2
-0.16903 0.669676 2.64406 4 2 0
0.28477 0.980558 2.07081 98 92 78
-0.261352 0.835762 1.95738 130 94 6
0.225135 0.977376 1.89951 194 196 191
0.226768 1.27816 2.06134 6 4 2
0.147348 1.38365 2.14334 104 104 96
-0.270608 -0.0577702 2.09349 98 96 90
-0.341724 0.0438575 2.23579 168 164 158
-0.703631 0.108361 2.25997 136 121 72
-0.576307 0.100395 1.9745 21 16 12
0.0102431 0.543903 2.22351 4 2 2
-0.0535539 0.425712 1.93864 8 4 2
0.33069 0.719771 2.1199 116 110 68
0.314128 0.777688 2.20604 174 151 24
-0.0444077 1.08483 1.94812 153 158 152
-0.120742 0.482277 2.57749 2 4 2
0.0594168 0.543191 2.39597 218 185 30
-0.146041 0.368721 1.92271 96 57 2
-0.270367 0.504511 2.09336 4 0 0
-0.699303 0.85099 1.88903 15 14 12
-0.361652 1.15442 2.14289 120 114 99
0.193208 1.31079 2.04959 52 52 48
0.110918 0.600131 2.25268 45 30 4
-0.589772 0.222197 1.60116 132 121 91
0.342266 0.720828 2.07964 119 90 12
-2.00966 2.73982 7.70109 70 50 12
-0.871287 0.39682 1.78788 100 100 92
-1.26494 0.524176 1.61957 124 124 116
-1.2568 0.547743 1.44679 10 10 8
-0.480447 -0.868137 1.96631 84 78 70
-0.0337251 0.641212 1.94884 145 93 0
0.25078 0.653449 2.40867 40 40 40
0.203824 0.850292 2.4152 72 62 30
0.290998 1.16318 2.07646 54 54 46
0.185186 1.34778 2.15826 42 40 35
-0.356664 1.17876 2.17391 133 126 110
0.24587 0.738407 2.25561 134 116 49
0.364006 0.704116 2.09866 167 144 40
-1.84698 0.27146 1.1457 42 42 40
0.262142 1.23206 2.03558 109 108 102
-0.0964197 0.373669 2.19906 22 24 16
0.274973 1.20941 2.05914 17 16 12
-0.596404 0.421199 1.72211 6 1 2
-0.20817 -0.322448 2.16665 114 106 96
0.235761 1.27457 2.06558 22 22 18
0.160814 1.36925 2.14079 4 3 2
0.281059 0.692544 2.05721 134 126 104
-0.586884 0.224339 1.62352 79 62 45
-1.31003 0.521076 1.70711 114 113 106
0.0243567 0.505707 2.11503 52 50 39
0.283134 1.18273 2.06329 84 84 78
-0.357706 1.18039 2.18979 104 96 79
-0.0388914 -0.0123955 2.00067 58 55 50
-0.594697 0.200774 2.2934 164 147 90
-0.0749859 0.536655 2.14286 63 58 51
-0.628894 0.654073 1.86664 34 33 31
0.292819 1.1607 2.06767 18 20 14
-0.471009 -0.867265 1.95272 86 80 74
-0.615943 0.201275 2.32628 173 153 67
-0.0294208 0.535834 2.19274 4 2 1
-0.37352 1.18196 2.1863 136 126 114
-0.604179 0.417623 1.72327 4 3 0
-0.139519 0.259625 2.21876 160 120 40
-2.15145 0.212921 1.75788 127 128 116
-0.215735 -0.328616 2.17528 112 106 94
0.226384 0.836134 2.32723 86 71 14
-1.23241 0.555903 1.46628 99 98 94
-0.238775 1.07277 2.09617 24 12 0
0.300447 1.13637 2.05274 26 24 20
-0.617044 -0.871618 1.81543 154 148 136
0.300916 1.12727 2.01674 4 4 2
-0.715887 0.354122 1.85043 184 148 31
-0.450462 -0.880417 2.0233 86 80 68
-0.494124 -0.881915 1.99151 146 140 130
-0.483322 -0.838219 1.8847 42 37 25
-0.506586 -0.821498 1.87563 130 128 118
-0.543986 -0.845251 1.78814 112 112 108
-0.489411 -0.804288 1.79921 77 78 74
-0.119096 -0.27639 2.06361 28 28 24
-0.120139 -0.232739 2.19315 64 64 59
-0.110496 -0.225997 2.18908 12 11 8
-0.141197 -0.282874 2.00908 6 5 1
-0.194325 -0.262323 2.01863 76 76 70
-0.231027 -0.16455 1.95248 18 17 12
-0.72201 0.0602347 2.18893 137 120 75
-0.723236 0.0667149 2.13394 66 64 59
-0.512612 0.228896 2.30593 153 150 135
-0.739964 0.0839524 2.1079 90 90 80
-0.610717 0.154097 1.77276 72 67 56
-0.502397 0.348338 2.05704 147 140 129
-1.36998 0.241892 2.34143 131 126 116
-1.35764 0.232881 2.25734 160 158 145
-1.38347 0.261661 2.28983 73 72 60
0.227084 0.65423 2.05608 72 30 0
0.276353 0.723946 2.06521 38 34 11
-0.622052 0.248317 1.61347 54 34 2
-0.104351 0.580087 1.89147 64 53 29
-0.0288321 0.626224 1.92782 138 82 3
-0.512611 0.395125 1.71347 138 123 66
-0.328057 0.510884 1.81767 70 50 6
-0.413981 0.448415 1.72808 145 93 4
-0.926476 0.317317 1.73799 10 10 8
-0.884048 0.391037 1.82867 120 120 112
-0.278794 0.533925 1.78794 89 89 70
-1.43772 0.427238 2.14935 200 198 192
-1.55609 0.36723 2.07189 157 156 150
-0.864074 0.411635 1.79555 122 121 115
-1.49785 0.389259 2.04064 73 72 66
-0.960027 0.310269 1.65224 51 50 48
0.212444 0.99677 2.26793 98 72 39
-1.52001 0.384852 2.02889 90 88 84
-0.838905 0.394136 1.72487 71 70 66
-0.306844 0.595457 1.82296 56 58 48
-2.0897 0.105552 1.72001 98 98 89
-0.588812 0.691773 1.91452 94 93 87
-0.635892 0.669522 1.89008 38 37 34
-0.149643 0.824588 1.93162 85 43 0
-0.125862 0.858692 1.97472 154 135 55
-0.31489 0.794134 1.91164 132 94 9
-0.104701 0.853653 1.90038 226 190 44
-0.41696 0.804946 1.88236 159 124 33
0.301621 1.0811 2.03527 63 64 57
-0.100078 0.896376 1.87372 212 186 52
0.2998 1.10125 2.03906 132 132 125
0.298913 1.14231 2.05877 52 52 43
-1.29928 0.519486 1.69484 123 123 114
-0.105773 0.946725 1.87564 116 102 43
-1.30447 0.509965 1.49352 78 76 68
-0.663757 0.694324 1.52993 185 184 174
-0.666709 0.811496 1.67689 97 96 88
-1.26527 0.53634 1.45416 108 108 102
-1.29446 0.536362 1.45623 98 96 92
-1.35142 0.517493 1.44156 128 128 122
-0.652452 0.788682 1.57519 122 121 114
-1.34042 0.594231 1.43815 89 89 81
-0.847307 0.675008 1.39957 183 180 166
-1.37843 0.656399 1.45598 146 144 132
-1.24684 0.717238 1.50089 106 106 100
-1.29949 0.661041 1.43618 107 105 96
-1.33109 0.671314 1.44389 80 80 70
-0.773108 0.956575 1.61848 98 94 82
-0.458577 -0.879778 2.04599 136 132 118
-0.445775 -0.863391 2.00003 52 47 42
-0.419158 -0.830347 2.04973 130 126 116
-0.51616 -0.825891 1.84815 115 114 104
-0.540213 -0.846459 1.77536 97 96 90
-0.0875445 -0.176892 2.15732 118 92 38
-0.269401 -0.198906 2.06447 3 2 1
-0.302395 -0.191039 2.11409 126 124 118
-0.715549 0.0546327 2.17595 116 104 72
-0.756591 0.0546593 2.12762 68 66 63
-0.497944 0.212077 2.26905 187 184 168
-0.534725 0.230057 2.23391 102 98 84
-0.568295 0.291564 2.35457 104 94 82
-0.580153 0.152871 1.74202 44 38 20
-1.39743 0.254543 2.32253 174 172 158
0.246361 0.672596 2.06598 134 90 37
-0.569323 0.236903 1.63826 128 116 96
0.186593 0.669944 2.0325 130 116 90
-0.609873 0.225403 1.59213 78 52 6
-0.474768 0.291935 1.62642 144 117 26
-0.545649 0.332848 1.65324 145 91 4
-0.148755 0.557112 1.86036 121 91 5
-0.570347 0.330484 1.64258 167 116 0
-0.170018 0.608969 1.92664 154 139 118
-1.35578 0.393866 2.08876 176 176 170
-0.443822 0.440016 1.72033 166 104 8
-0.919803 0.332215 1.75016 59 58 56
-1.49818 0.381303 2.09854 210 208 202
-0.29589 0.552759 1.79416 156 156 139
-0.858312 0.400983 1.78482 120 119 113
-0.18802 0.655409 1.87524 174 122 15
-1.57897 0.365138 2.01914 84 82 77
-0.612925 0.648532 2.04519 6 3 6
-2.08957 0.103295 1.72549 74 75 66
-0.609252 0.723291 1.96397 88 86 82
-0.121511 0.842517 1.9522 91 75 15
-1.4251 0.449758 1.84443 38 36 29
-1.02011 0.405646 1.5503 66 66 62
-1.0773 0.442643 1.5506 20 19 15
-1.35945 0.484208 1.70122 22 22 14
-1.30507 0.521126 1.70339 112 112 104
-0.106092 0.947738 1.88496 132 114 38
0.286707 1.1754 2.04591 101 102 93
-1.259 0.521275 1.61064 118 117 108
0.273206 1.21428 2.06813 6 6 2
-0.294244 1.06389 2.01876 62 44 3
0.273048 1.21902 2.05918 22 23 18
-1.29648 0.522638 1.56065 28 28 22
-0.674092 0.99262 2.03652 104 104 94
-0.327955 1.1463 2.10502 116 108 94
-0.732174 0.880581 1.78946 89 88 80
0.209916 1.28995 2.04635 32 32 27
-0.84776 0.736221 1.5323 160 154 138
-0.882396 0.726581 1.50356 168 165 150
-0.280752 1.20547 1.98616 118 112 98
-1.33465 0.586763 1.43016 58 58 50
-1.37203 0.648347 1.44497 130 128 116
-1.24997 0.719142 1.50595 112 112 106
-1.22104 0.721026 1.49216 60 60 54
-1.33052 0.669256 1.44528 72 72 62
-0.505122 -0.881348 2.02398 162 155 145
-0.379064 -0.804006 1.88921 52 50 38
-0.492908 -0.833653 1.91934 45 40 28
-0.351451 -0.760542 1.87913 23 20 14
-0.399606 -0.779249 1.87408 40 38 32
-0.493894 -0.827233 1.82942 164 162 150
-0.366659 -0.621449 1.7757 38 34 27
-0.152961 -0.233451 2.27679 10 7 4
-0.141746 -0.270006 2.09915 40 39 34
-0.106859 -0.227483 2.18345 34 33 27
-0.0851707 -0.200436 2.21214 26 18 8
-0.114186 -0.172246 2.26973 114 108 64
-0.00475697 -0.0753616 1.94669 18 16 14
-0.187455 0.146004 1.92335 144 127 84
-0.732801 0.0734246 2.16009 52 52 47
-0.585579 0.296808 2.27175 32 24 12
-0.564592 0.147228 1.8031 116 98 55
-0.618229 0.156438 1.7809 54 51 45
0.190999 0.647334 2.02476 44 19 0
0.133399 0.634825 2.00185 68 44 0
0.18664 0.670305 2.03151 126 114 92
0.0860232 0.626162 2.00229 136 78 0
-0.468204 0.314364 1.67945 67 53 26
-0.0347073 0.576707 1.91085 172 118 11
-0.0554728 0.587962 1.93467 150 91 0
-0.0921346 0.576565 1.89296 61 32 2
0.195869 0.894778 2.31007 116 82 12
0.196304 0.881514 2.25429 60 37 4
-0.567392 0.330505 1.64282 157 105 0
-0.926118 0.328034 1.78715 16 14 12
0.205639 0.918257 2.27511 154 122 34
-0.284732 0.536412 1.80297 86 84 64
-1.50948 0.363979 2.0826 82 81 73
-1.49584 0.379339 2.09763 222 220 214
-1.38995 0.419497 2.10968 84 82 76
-0.877099 0.39181 1.82021 122 122 113
-0.287242 0.543066 1.77617 158 158 140
-2.06472 0.0559198 1.76278 105 104 94
-0.856657 0.396004 1.78443 124 123 117
-2.08363 0.0582477 1.76206 142 142 133
-2.08541 0.0636116 1.74896 121 122 112
-0.965863 0.313238 1.66337 50 50 46
0.206318 1.01037 2.30077 90 65 34
-0.848321 0.396497 1.73481 53 52 48
-0.305136 0.595938 1.82225 52 54 46
-0.603201 0.632023 2.01134 5 3 6
-0.124124 0.682204 1.84702 131 84 6
-1.41256 0.443971 1.97912 128 128 118
-2.11596 0.130011 1.75751 4 2 1
-0.495118 0.795296 2.0465 7 4 0
-0.136298 0.868869 2.03295 22 11 2
-0.625208 0.649813 1.85431 36 36 32
-0.142409 0.813583 1.91403 124 80 8
-0.242427 0.77541 1.88564 120 88 19
-0.11539 0.831097 1.9231 158 138 54
-2.18888 0.22239 1.7959 136 136 123
-0.278979 0.790306 1.89642 92 62 11
-0.241745 0.785953 1.85339 82 59 11
-0.105707 0.844402 1.88433 224 180 28
-0.407634 0.795059 1.8624 162 127 34
-1.32623 0.472603 1.70625 23 24 16
-1.12144 0.48086 1.61948 32 31 27
0.299627 1.10095 2.03913 89 90 82
-1.38228 0.49847 1.7453 25 24 16
-1.26625 0.523892 1.62348 123 122 112
-1.2812 0.516147 1.55129 17 16 10
-0.736161 0.64666 1.55736 148 142 127
-1.31709 0.513829 1.52599 186 184 176
-0.269988 0.949869 1.7952 98 82 42
-1.26317 0.534948 1.45525 74 74 67
-1.24874 0.552084 1.46944 89 88 82
-0.460338 1.03281 1.86766 121 110 90
-0.276313 1.19739 1.97852 85 79 64
-0.272403 1.20251 1.97621 125 122 108
-0.876267 0.71828 1.48149 198 195 183
-1.23865 0.711527 1.49166 66 65 59
-1.30188 0.663755 1.43695 90 88 79
-0.766275 0.951844 1.65588 114 111 96
-0.464334 -0.880037 2.0631 134 130 116
-0.498933 -0.868401 2.01431 8 4 1
-0.48459 -0.833073 1.88253 44 40 28
-0.543584 -0.823455 1.96578 164 162 150
-0.333818 -0.780927 1.7108 62 59 55
-0.490094 -0.804218 1.80582 57 58 54
-0.14478 -0.245428 2.24169 23 20 16
-0.105508 -0.224684 2.17689 10 8 5
-0.256727 -0.164469 1.96117 176 172 158
-0.706651 0.0517118 2.17083 138 119 75
-0.128795 0.382294 2.21177 60 46 10
-0.234628 0.413525 2.14358 187 136 34
0.167078 0.607848 2.26228 8 8 4
-0.590067 0.154499 1.76973 32 28 15
-1.42741 0.287102 2.36469 72 72 59
0.248197 0.668796 2.0784 132 85 0
0.337641 0.730724 2.11112 107 78 18
0.23656 0.716682 2.1151 68 32 2
-0.215263 0.505715 1.95543 78 62 18
-0.593696 0.229512 1.60832 143 136 110
-0.490707 0.306206 1.65877 102 81 14
-0.629777 0.254864 1.63149 60 40 0
-0.44969 0.372377 1.71821 26 15 15
-0.436844 0.364361 1.66596 23 18 12
-0.133231 0.590701 1.92858 130 118 94
0.186867 0.897535 2.29158 54 30 1
-1.51418 0.365132 2.0951 96 96 88
-0.888266 0.371286 1.80457 60 60 53
-1.4966 0.381888 2.10007 222 220 214
0.236844 0.981151 2.29407 127 96 46
-0.38799 0.529 1.76794 211 179 56
-0.304397 0.563258 1.78095 102 102 92
-0.29147 0.608171 1.82589 108 108 99
-1.38212 0.471009 2.03119 15 16 10
-1.40826 0.444489 1.97273 128 128 118
-1.28339 0.45445 1.94396 17 17 12
-1.56848 0.439193 2.00893 80 78 71
-0.383253 0.726595 1.96543 160 131 36
-1.57442 0.490343 1.99149 138 135 126
-0.631199 0.655234 1.86842 34 34 31
-0.145818 0.820688 1.93063 124 82 9
-2.17289 0.218619 1.7822 136 136 122
-0.407791 0.797047 1.86439 160 124 27
-1.32989 0.476278 1.71331 30 30 22
-1.3495 0.478177 1.70972 25 24 16
-0.270229 0.803758 1.79407 158 102 1
-0.103904 0.893388 1.87346 228 189 32
-0.182231 1.00716 1.93052 16 9 8
-0.301251 1.08785 2.05145 58 40 4
-0.28369 0.957773 1.84507 144 104 18
0.069107 1.19174 2.02669 117 104 70
-1.3239 0.52047 1.53527 186 184 176
0.253381 1.23659 2.04367 44 44 38
-1.26983 0.537511 1.52285 56 55 48
-1.3104 0.502894 1.47267 204 204 195
0.234184 1.27517 2.06654 14 14 10
-0.056204 1.13499 1.94884 142 134 108
0.0242516 1.20012 2.01419 132 120 86
-0.564827 1.02354 1.93608 125 124 115
0.225991 1.2822 2.04905 38 40 34
-1.24577 0.560211 1.47617 78 78 72
-0.490203 1.07895 1.941 132 122 104
-0.503976 1.08651 1.92156 160 152 133
-0.853241 0.742835 1.54131 158 154 138
-0.874169 0.686301 1.43512 163 160 146
-0.676433 0.82454 1.56805 52 51 44
-1.86587 0.276807 1.1615 52 52 48
-1.34437 0.591536 1.43864 78 78 70
-0.977866 0.643804 1.37002 50 48 40
-1.24672 0.73471 1.53168 44 44 37
-0.427755 -0.852667 2.05201 52 48 38
-0.498766 -0.869845 2.01466 30 26 20
-0.523081 -0.875208 2.00079 112 107 96
-0.427948 -0.830954 2.03458 1 0 1
-0.505286 -0.829792 1.85052 164 162 148
-0.566114 -0.726831 1.91846 134 132 122
-0.133491 0.378554 2.24022 64 46 8
-1.3611 1.20874 4.40924 88 70 19
-0.631695 0.157373 1.75926 113 92 19
-1.48372 0.305956 2.51801 168 163 152
-0.436062 0.328906 1.90322 48 46 20
-0.191964 0.480623 2.06153 120 116 106
0.352453 0.723237 2.14212 162 131 34
0.229878 0.660995 2.05824 88 46 0
0.136339 0.634656 2.01417 92 65 4
0.0870572 0.621708 1.98941 148 88 2
-0.624748 0.243672 1.61025 98 71 7
0.11115 0.678849 2.00051 97 64 6
-0.39356 0.440212 1.82401 210 166 42
-0.617049 0.291283 1.63818 134 105 35
-0.152346 0.567836 1.89231 110 84 6
-0.146847 0.5835 1.87087 153 142 122
0.205644 0.916026 2.26852 159 128 38
-0.0609631 0.644158 1.9132 152 92 0
-0.333546 0.52158 1.80402 72 44 6
-1.5038 0.360173 2.07666 112 112 104
-0.163771 0.619378 1.88805 74 50 10
-1.4453 0.426851 2.15109 214 213 206
-1.58876 0.371927 2.03342 80 78 72
-0.276514 0.587366 1.79825 111 114 102
-0.37325 0.739776 1.99849 129 114 54
-0.487418 0.782127 2.03841 12 10 4
-0.62985 0.747705 2.01161 94 92 86
-2.18954 0.218058 1.80514 143 143 130
-1.5092 0.469095 1.91404 160 158 150
-1.07085 0.414963 1.63444 6 6 2
-0.407283 0.797446 1.86706 163 126 28
-1.31928 0.46674 1.69191 38 36 29
-0.108047 0.887216 1.8686 229 188 34
-1.29865 0.518482 1.68895 108 108 99
-0.120864 0.963241 1.92458 168 136 22
-1.26128 0.519059 1.61799 114 112 103
0.049877 1.10835 2.00785 111 100 74
-0.285924 0.958024 1.84743 160 120 19
-1.32319 0.509392 1.48724 207 206 198
-0.85556 0.658634 1.51721 148 144 132
-0.487291 1.09698 1.94934 166 159 145
-0.863508 0.752264 1.56009 164 160 144
-0.70426 0.776139 1.53105 197 198 188
-0.936042 0.626191 1.36927 149 147 131
-1.24384 0.727932 1.5251 42 42 36
-0.453697 -0.883658 2.01852 98 94 80
-0.537543 -0.870845 2.02898 118 112 101
-0.545465 -0.849276 1.77824 48 46 42
-0.323445 -0.739105 1.83284 19 14 12
-0.488366 -0.806506 1.79588 44 44 39
-0.100319 0.0592249 2.01707 101 72 43
-0.458213 0.39156 2.02672 64 56 37
-1.52091 0.346877 2.43364 220 219 210
0.0383264 0.604159 1.96147 109 52 2
0.120452 0.692572 2.01477 56 36 1
-0.596613 0.287989 1.64409 90 70 38
-0.353065 0.487192 1.85543 197 161 44
0.175547 0.917149 2.33765 69 42 4
-0.948161 0.32904 1.83753 66 66 60
-0.528739 0.369215 1.68679 66 49 6
0.183741 0.975056 2.37774 130 98 22
-1.49243 0.350352 2.05278 134 134 126
-0.319165 0.50236 1.75396 49 24 8
-0.303591 0.544369 1.75822 92 90 74
-0.0762049 0.729743 1.99139 56 36 6
-0.156599 0.725093 1.92556 96 50 2
-1.34196 0.444712 1.95808 10 10 4
-2.02202 0.0945774 1.65995 11 11 6
-0.398799 0.764722 2.05647 98 84 36
-1.4039 0.442683 1.95307 123 123 114
-1.58047 0.453733 2.02474 100 97 90
-1.28411 0.452583 1.87404 137 137 132
-0.588326 0.699551 1.91842 94 92 86
-0.283328 0.76607 1.89684 66 43 16
-0.626838 0.737317 1.92143 10 8 4
0.292976 1.14748 2.06431 9 9 4
-0.122246 0.956341 1.91539 176 138 15
-1.29739 0.521167 1.68224 107 106 96
-0.258042 0.862826 1.79754 228 188 40
-1.27035 0.518261 1.62585 118 116 106
-0.187301 1.0179 1.93689 12 10 6
-1.30061 0.527377 1.5739 38 37 32
-0.20674 0.889874 1.73873 60 42 2
0.269128 1.21076 2.04719 6 7 2
-1.22253 0.558393 1.57805 8 7 3
-0.609481 1.054 2.0043 164 162 152
-1.84154 0.204912 1.17506 46 46 40
-1.25572 0.560683 1.48188 87 86 80
-0.48709 1.0876 1.92584 168 160 146
-0.478423 1.04726 1.86361 160 152 133
-0.939487 0.737137 1.5334 164 160 146
-0.923129 0.615455 1.35456 150 148 132
-0.982638 0.649839 1.37687 64 63 56
-0.433931 1.12352 1.86113 99 89 66
-1.27001 0.59283 1.32799 121 119 108
-1.1486 0.776201 1.43112 126 125 118
-0.470221 -0.861813 2.11582 40 36 26
-0.272084 -0.157545 1.97745 180 174 156
-0.220114 -0.0747547 1.83136 72 70 64
-0.123226 0.0365945 1.99749 34 28 11
-0.623586 0.146968 1.7387 69 56 20
-1.38528 0.220157 2.30185 186 180 166
0.337905 0.656124 2.07234 184 142 10
-0.208375 0.507841 2.01647 72 58 18
-0.21191 0.505846 1.95138 148 128 46
-0.506558 0.276465 1.66143 150 94 0
0.0173841 0.607954 1.97939 162 115 12
-0.147174 0.538807 1.8909 211 169 8
-0.0370496 0.648006 2.01521 114 58 5
-0.55772 0.35452 1.66023 216 162 35
-0.479428 0.390199 1.69308 30 18 20
0.22982 0.974642 2.29089 106 70 18
-0.919129 0.330203 1.68336 48 46 44
-0.279427 0.582485 1.79144 116 118 106
-0.307418 0.689784 1.98195 28 26 18
-0.159393 0.728034 1.91296 96 51 2
-2.07497 0.102457 1.71834 16 16 12
-1.95787 0.0830435 1.5691 204 204 193
-0.154231 0.784633 1.90529 194 142 6
-2.16068 0.212385 1.77344 132 132 118
-1.53864 0.470355 1.94616 186 184 174
-0.601276 0.699701 1.85284 14 12 10
-0.415646 0.801921 1.8774 130 98 24
0.220114 0.978659 1.91246 160 154 131
-1.3448 0.477895 1.70748 25 24 17
-0.684939 0.91941 2.05398 102 94 76
0.237392 1.11969 2.0119 158 151 130
-0.696238 0.852689 1.88714 8 6 3
-0.285998 1.06437 2.01557 59 42 4
-1.22591 0.552832 1.56953 8 8 4
0.224305 1.17823 2.01344 159 150 122
-0.315899 0.963048 1.8132 190 154 25
-0.0375309 1.09691 1.88983 138 128 98
-0.597034 1.03205 1.97436 167 166 156
-1.38094 0.54993 1.50216 60 60 54
-1.29335 0.593322 1.54994 100 100 94
-0.568586 1.05918 1.92206 112 109 97
-1.89564 0.262031 1.17891 72 71 64
-0.822895 0.613447 1.33338 164 159 144
-0.717222 0.862815 1.63868 30 29 24
-1.35028 0.585207 1.42893 58 59 52
-0.439164 1.07911 1.80056 96 84 64
-1.93364 0.357038 1.19284 125 125 111
-1.33177 0.659398 1.43183 89 88 78
-0.992367 0.71303 1.39667 48 48 40
-0.505618 -0.843002 1.83735 165 162 146
-0.598198 -0.801508 1.77675 4 2 0
-0.305137 -0.190849 2.07411 170 165 154
-0.171726 0.365866 2.16257 127 74 27
-0.44688 0.334157 1.96425 46 40 24
-0.210365 0.490199 2.09875 90 86 75
0.318165 0.764057 2.22618 80 56 6
0.289671 0.860452 2.31932 140 108 28
-0.478714 0.407927 1.85884 210 171 34
-0.673467 0.285408 1.65463 154 120 21
0.180681 0.832623 2.17054 24 11 2
-0.426729 0.52144 1.77152 208 176 38
-1.29695 0.40808 1.87039 18 18 13
-1.58405 0.443692 2.02032 94 92 85
-1.28556 0.431953 1.87562 26 26 20
-0.160757 0.784205 1.90243 190 140 10
-1.61224 0.493184 2.01016 121 118 108
-1.34938 0.476332 1.71817 51 50 42
-0.124094 0.945617 1.91939 202 154 20
-1.32738 0.468488 1.62253 98 98 88
-0.746648 0.541826 1.49802 68 68 60
-0.258904 0.861444 1.80511 213 170 25
-0.794324 0.514217 1.46038 56 54 46
0.229327 1.16846 2.03935 156 148 127
-1.24766 0.561478 1.59004 8 7 4
-0.254764 0.963266 1.83941 126 110 78
-0.577374 0.994465 1.91798 163 162 151
-0.359801 0.932895 1.7607 178 138 18
-0.688328 0.735049 1.54059 198 196 182
-0.530587 1.05231 1.9155 82 70 49
-0.699745 0.763112 1.52134 197 196 182
-0.297143 1.21183 1.99473 128 122 106
-0.972262 0.638715 1.36543 100 98 91
-0.50457 1.13112 1.9029 96 86 67
-0.446706 1.09811 1.83966 96 82 60
-1.33583 0.659503 1.45313 66 64 54
-0.975846 0.698761 1.38307 191 190 180
0.130666 0.63872 2.00479 57 36 2
-1.38247 0.44776 1.92544 120 120 114
-1.87729 0.281046 1.17113 83 84 77
-1.32683 0.601976 1.43073 50 48 44
-0.0257632 -0.0267739 1.96005 98 96 92
-0.588952 0.216551 1.63203 75 56 6
-0.0708701 0.640835 1.92136 155 104 6
-0.194238 0.669885 1.87468 149 100 1
0.0422261 1.22637 2.02517 165 158 128
-1.29998 0.518032 1.42573 96 96 90
-0.675076 0.734982 1.53158 134 134 126
-1.96021 0.37078 1.21107 136 138 126
-0.383612 0.357645 1.89649 106 106 94
-0.546304 0.240064 1.63685 67 42 20
0.104093 0.619203 1.98794 141 84 0
-0.377141 0.415703 1.76143 112 74 22
-0.417163 0.438861 1.75127 163 114 22
-1.36763 0.646105 1.44365 110 110 100
-0.026138 -0.0280906 1.966 97 96 92
-0.100645 0.0900428 1.94709 39 27 16
-0.195931 0.490733 2.08321 112 112 100
-0.590647 0.21401 1.63048 86 58 4
-0.329556 0.51658 1.81248 34 21 4
-0.217874 0.794462 1.86108 90 54 0
-1.30408 0.517535 1.42542 62 62 56
-1.86839 0.251408 1.15522 65 66 60
-1.33603 0.672756 1.45077 68 68 60
0.116425 0.65024 2.0036 104 72 6
-0.402517 0.383074 1.73388 140 84 0
-0.0513955 0.582599 1.91912 141 84 0
-0.494439 0.429751 1.66804 46 30 0
-0.11728 0.788806 1.9208 124 92 10
0.276366 1.19984 2.05163 10 9 6
-1.96722 0.37231 1.22067 139 141 129
0.134869 0.632855 2.00288 80 52 2
-0.0688301 0.638796 1.91953 138 87 0
-0.229749 0.449439 2.21499 157 112 15
-2.08377 0.0606548 1.76933 14 14 12
-0.244229 1.22936 1.93101 88 87 78
-0.260967 0.424293 2.10857 112 81 28
-0.255473 0.797784 1.89261 78 49 2
-0.0635223 1.06061 1.85599 16 15 13
-1.36215 0.526515 1.46411 72 72 66
-0.52449 -0.762598 1.7764 114 114 109
-0.622915 0.256785 1.62578 60 41 10
-2.09972 0.063261 1.78087 46 48 43
-0.137454 0.386457 2.2218 115 92 32
-0.721333 0.0471797 2.27714 194 178 118
-1.08991 0.116235 1.85081 118 118 110
-0.52473 -0.764203 1.78521 69 68 66
-0.392733 0.432075 1.80536 110 68 12
-2.08532 0.0614464 1.76927 124 126 118
-0.343437 0.485066 1.84007 158 125 37
-0.135437 0.435782 2.12879 154 116 29
-0.504641 0.313836 1.68166 126 100 24
-0.50372 -0.754617 1.76636 160 162 151
-0.144551 0.438463 2.14638 168 126 32
-1.14839 0.782306 1.4344 130 130 124
-0.535867 -0.755604 1.79906 171 170 162
-0.164253 0.477331 2.13701 14 9 8
0.029669 1.22324 2.03234 196 186 156
-0.406953 0.53474 1.78471 206 172 48
-1.14289 0.28392 1.78145 203 204 200
-0.587046 0.365188 1.64233 36 20 2
-0.119321 0.897858 1.88056 227 186 42
-0.59152 0.299659 1.60617 190 151 16
-0.293315 0.601365 1.88636 75 76 70
-0.59276 0.327722 1.60193 24 11 3
-0.396717 0.416384 1.75218 180 134 24
-0.888882 0.74543 1.51389 156 151 130
-0.0547868 0.715141 1.96162 25 12 0
-0.423209 0.353931 1.72312 201 166 25
-0.91466 0.742889 1.51982 194 188 169
-0.196959 0.639641 1.9232 148 112 14
-0.539659 -0.764538 1.82555 83 84 80
-1.62849 0.623367 4.18222 124 110 58
-0.554276 -0.845707 1.81075 86 84 84
-0.457533 -0.849413 1.82582 142 138 126
-0.583118 -0.766362 1.82141 30 26 23
-0.505302 0.100106 2.30174 106 103 96
-0.0847743 0.595901 1.90199 86 58 2
-0.898978 0.731617 1.51975 192 187 170
-1.45512 0.453557 1.88954 95 94 88
-1.09897 0.433489 1.67752 18 17 12
-1.36501 0.502354 1.66493 120 120 112
-0.138698 -0.049418 1.97008 60 58 56
-0.145083 0.412968 2.23547 208 168 52
-0.0211904 1.06631 1.94436 120 116 100
-1.34153 0.515506 1.50769 191 191 184
-0.0699669 0.699654 1.92305 64 34 0
-0.295962 0.669073 1.93356 6 6 0
-0.0787358 1.1056 1.87123 36 36 28
-0.774768 0.935175 1.6194 54 48 38
-0.13473 0.306657 2.1815 118 68 4
-0.474061 1.10743 1.96411 130 127 106
-0.444286 -0.856271 2.05507 18 15 10
-0.231355 -0.324239 2.21065 135 130 120
-0.480626 0.199765 2.60876 108 106 100
0.0441575 0.601943 1.96615 135 88 4
-0.342745 0.426845 1.76918 169 122 20
-0.896112 0.747898 1.52417 155 150 130
0.00110554 0.518157 2.16583 50 50 40
-1.10782 0.437546 1.68183 14 13 8
0.141656 0.595712 2.24678 7 7 0
-0.0644678 0.475959 2.08045 25 24 18
-0.588434 0.220146 1.63845 81 64 2
-0.142812 0.403076 2.2264 186 150 47
0.0841398 0.626154 1.99279 130 79 0
0.177186 0.816796 2.25446 98 68 12
-0.861865 0.708354 1.46872 158 153 133
-0.0826148 0.13451 2.11639 78 48 15
-0.659221 0.187448 1.91786 25 26 17
-0.260113 0.737244 1.84454 104 74 9
-0.329666 0.967842 1.81834 177 148 34
-1.28259 0.570636 1.50507 60 60 55
-0.32509 0.561716 1.81002 126 126 114
-0.855664 0.843936 1.49415 202 196 176
-0.611254 0.232433 1.65104 88 77 47
-0.49378 -0.819561 1.79767 22 22 18
0.0150343 0.472379 2.49317 64 62 48
0.143304 0.639355 2.00877 42 22 0
-0.469411 0.310302 1.67177 64 48 32
-1.56898 0.361484 2.00887 76 74 70
-0.238733 0.767949 1.86768 148 115 22
-1.86299 0.251164 1.15241 16 17 14
-1.28916 0.654043 1.41807 90 90 82
-0.532046 -0.724884 1.8189 138 136 128
-0.0248247 -0.0648962 1.94567 74 74 70
-1.13564 0.301164 1.79837 9 10 6
-2.23093 0.23173 1.84333 128 130 120
-0.625886 0.174492 2.03363 178 150 50
-0.112799 0.887 1.86644 228 188 27
-1.37508 0.54681 1.63237 106 106 102
0.0239608 1.12303 1.90659 140 132 111
-0.666927 0.187791 1.94159 54 49 46
-1.12103 0.298753 1.79702 8 8 4
0.258712 1.21943 2.08388 6 6 3
-0.54955 0.270971 1.6515 122 91 46
-0.534309 0.380789 1.70272 92 68 19
-0.26354 0.592221 1.82656 62 62 54
-1.27744 0.56819 1.50088 111 110 105
-0.414072 -0.856302 2.01339 32 30 22
-2.09448 0.102232 1.73125 78 79 72
-1.27871 0.350512 1.97899 196 198 192
0.241768 0.670657 2.38853 34 32 16
-1.88842 0.281132 1.18084 5 6 4
-0.609076 0.172715 1.99671 171 150 54
0.0150815 1.12797 1.903 144 138 116
-1.31887 0.385694 1.79746 76 76 68
-0.0836012 1.17978 1.89314 12 10 5
-0.12854 0.597691 1.96716 94 67 4
0.11284 0.68693 2.01923 72 48 0
-0.587493 0.230327 1.64266 102 90 61
-0.519595 0.384035 1.68913 70 48 7
-0.118165 0.862848 1.92057 228 188 29
0.0134719 0.594728 1.96312 169 130 26
0.0843769 0.496203 2.65653 126 104 22
-0.601457 -0.797059 1.7723 40 38 28
-0.908123 0.735519 1.50429 178 174 160
0.284148 1.18496 2.06433 162 162 153
-1.34879 0.502654 1.64999 16 17 11
-0.510277 -0.75745 1.79885 94 94 88
-0.615836 -0.802384 1.78601 102 102 93
-1.27233 0.524802 1.53365 8 8 4
-0.570151 -0.770426 1.76077 4 2 2
-0.0595616 -7.38568e-05 1.99151 126 124 116
0.253956 0.639934 2.38895 16 18 14
-2.08479 0.11508 1.72514 80 81 76
-0.20361 0.75228 1.87838 134 86 4
-0.250297 0.755794 1.87661 85 59 4
-0.624006 -0.803432 1.79921 73 72 66
-0.897826 0.344518 1.79496 8 7 6
-0.242796 0.152862 1.9891 107 104 94
-0.413421 0.293007 1.85826 65 62 46
-0.0801418 1.18167 1.89673 104 102 93
-0.369705 -0.776241 1.86144 47 44 36
-0.0553279 1.03661 1.86723 14 14 8
-0.21082 0.50719 1.95645 64 51 16
-0.237103 0.487272 1.87246 68 66 56
-0.400025 0.933513 1.80556 151 128 52
-0.612487 0.236009 1.61801 141 128 108
0.282806 1.18542 2.07523 157 157 148
0.267639 1.22682 2.06655 13 13 6
0.0751951 0.560447 2.45647 16 8 2
-0.820326 0.397634 1.73909 29 28 24
0.0289335 1.21915 2.02546 200 192 170
-1.22719 0.371784 1.88583 171 170 166
-1.36965 0.547709 1.50804 75 74 68
0.28037 1.17937 2.05677 14 14 8
-1.18766 0.720818 1.46154 101 102 96
-0.380856 -0.800225 1.9175 82 80 68
-1.28313 0.517166 1.5555 22 22 18
0.0187874 1.23225 2.0472 216 208 180
-0.201752 0.475317 2.08581 90 88 76
-0.103468 0.834911 1.86808 224 180 18
-0.0421737 0.710947 1.94853 15 7 0
-0.251537 0.923594 1.76359 135 102 17
-0.548393 0.334393 1.66457 150 99 4
-0.667732 0.754631 1.85516 4 4 2
-1.29393 0.519316 1.42244 120 119 112
-1.10928 0.809779 1.42439 82 82 74
0.159762 1.33886 2.06391 10 10 8
-1.51623 0.361375 2.084 185 186 178
-1.29978 0.424388 1.87971 24 22 15
-0.8668 0.759179 1.56353 176 178 167
-0.943426 0.761726 1.40016 212 210 198
-0.544982 -0.846945 2.02428 94 90 76
-0.377708 -0.799536 1.88673 32 30 18
-0.605182 -0.419892 1.7111 72 72 70
-1.33213 0.209422 2.33487 59 58 40
-1.00629 0.321489 2.12857 126 126 116
-0.640732 0.239226 1.57622 112 90 31
-0.381936 0.555948 1.95549 78 60 18
-0.999821 0.240954 1.70146 20 19 16
-0.448975 0.426588 1.7406 138 81 1
-0.931643 0.327353 1.78818 6 5 4
-1.34778 0.393052 2.07767 184 184 177
-1.39421 0.421577 2.12209 70 69 60
-1.53247 0.370142 2.09101 124 123 114
-1.49477 0.381354 2.09034 150 149 140
-2.09769 0.120124 1.73336 42 42 38
-2.10677 0.133421 1.74541 105 106 97
-1.34879 0.511003 1.62164 82 82 73
-0.191104 1.00907 1.9413 24 12 3
-1.3386 0.533987 1.55413 175 175 166
0.236903 1.26716 2.05037 50 50 41
-0.460191 -0.886601 1.98128 90 86 74
-0.470811 -0.883104 1.97877 48 44 34
-0.510972 -0.872557 1.96716 107 102 88
-0.60548 -0.41892 1.71492 56 54 54
-0.489148 0.165837 2.2732 105 100 90
-0.756846 0.107065 2.1523 106 105 96
-0.369201 0.306871 1.90574 56 54 47
-1.11167 0.210918 1.95898 10 10 6
-0.948028 0.318614 1.79106 42 42 38
-1.26747 0.363743 2.02267 40 40 34
-1.05299 0.285612 1.76738 14 13 10
-0.226439 0.563087 1.78026 124 122 111
-1.36013 0.457009 2.10011 125 124 118
0.297619 1.14159 2.06044 60 60 50
-1.38991 0.517403 1.68603 110 110 100
-0.195742 1.02956 1.97847 29 16 0
-0.75558 0.95272 1.93141 98 92 82
-0.692654 0.843074 1.55438 154 152 146
-0.4699 -0.886446 2.00644 113 109 96
-0.413802 -0.827013 2.04328 166 163 154
-0.501905 -0.826899 1.82064 150 148 140
-0.0926137 -0.167391 2.17093 94 82 50
-0.260363 -0.159189 1.99318 156 153 146
-0.509593 0.1794 2.27837 72 66 57
-0.739275 0.0962886 2.11093 121 120 112
-0.580741 0.278229 2.3606 140 131 116
-1.21246 0.15573 2.19102 172 168 154
-0.539541 0.308748 2.06647 56 45 13
-0.37486 0.292464 1.93107 12 10 4
-1.32728 0.204814 2.32385 144 141 122
-0.39442 0.332772 1.89253 153 150 138
-0.974571 0.302303 2.07155 106 106 97
-1.10254 0.211647 1.96321 6 5 2
-0.323073 0.45871 1.97807 72 73 63
-0.987119 0.27481 1.96393 56 54 52
-0.959351 0.294376 1.96247 19 18 10
-0.301769 0.582912 2.03273 26 18 6
-0.429643 0.365401 1.68726 56 42 6
-1.03807 0.270999 1.76746 76 75 72
-0.865833 0.402221 1.91847 66 64 58
-0.647887 0.310914 1.63613 202 176 32
-0.328427 0.508379 1.81439 102 80 18
-0.935215 0.319779 1.74907 6 5 4
-1.33984 0.423612 2.05425 108 108 100
-0.883683 0.324668 1.67131 26 24 20
-1.32124 0.436966 2.03804 125 124 118
-1.38674 0.477684 2.05065 12 12 8
-1.25779 0.456232 1.91462 19 19 14
-1.37187 0.434613 1.90659 129 128 119
-1.31699 0.468033 1.91047 10 10 6
-1.42299 0.448265 1.84896 40 40 30
-0.71701 0.734969 1.85096 4 4 2
-1.34585 0.508519 1.61883 74 74 65
-1.26132 0.692912 1.69864 148 152 146
-1.24877 0.570289 1.49487 125 124 118
-0.747946 0.901887 1.64355 126 125 120
-0.424704 -0.877099 1.82936 173 168 156
-0.357484 -0.830468 1.89575 130 126 120
-0.521026 -0.87284 1.99103 107 102 88
-0.555111 -0.726204 1.9014 86 84 74
-0.353644 -0.621507 1.7361 19 15 6
-0.370957 -0.612505 1.72042 108 106 104
-0.217008 0.142618 1.94107 103 95 77
-1.03092 0.190645 2.46113 96 91 82
-0.484122 0.154902 1.96886 22 22 5
-0.964652 0.305736 2.05347 119 119 109
-0.975231 0.273628 1.95274 58 56 53
-0.2547 0.539663 2.01296 28 15 4
-0.837774 0.380613 1.86569 67 64 59
-0.913875 0.327784 1.77249 9 8 5
-0.93566 0.320317 1.74655 6 4 3
-0.289727 0.548003 1.7865 155 154 140
-0.971074 0.316837 1.67069 38 38 34
-0.847854 0.396497 1.73916 53 52 48
-1.28885 0.467597 1.89931 121 121 116
-1.07081 0.423839 1.64275 9 8 4
0.294607 1.16375 2.07493 78 78 68
-1.4042 0.537477 1.70882 67 67 57
-1.29918 0.502185 1.51522 199 199 189
-0.730674 0.774861 1.63438 101 102 98
0.212719 1.2847 2.037 70 70 64
-0.478373 1.10575 1.96271 153 146 126
-0.732231 0.881933 1.60714 151 150 144
-0.810759 0.994382 1.72778 124 120 109
-0.49413 -0.878463 2.05855 45 41 34
-0.439486 -0.835764 2.1029 146 142 135
-0.545443 -0.873007 1.81361 147 142 128
-0.592879 -0.771594 1.81158 36 32 28
-0.63181 -0.770216 1.92086 5 1 0
-0.369983 -0.622542 1.77173 14 10 8
-0.382492 -0.612571 1.74756 100 98 94
-0.612567 -0.415649 1.72882 72 72 70
-0.443451 0.155335 2.24898 117 114 107
-0.536556 0.208389 2.34514 156 148 135
-0.47101 0.308774 1.96523 122 115 102
-0.443329 0.576286 2.47141 115 100 74
-0.313452 0.460226 2.11109 114 96 70
-1.50791 0.347197 2.42933 193 190 176
-1.13192 0.218193 2.01113 6 5 2
-0.371124 0.410428 1.92891 122 104 50
-0.593187 0.288229 1.64726 70 62 37
-0.673145 0.28585 1.64301 94 78 17
-1.02397 0.263721 1.74444 60 60 56
-0.947515 0.311939 1.79139 40 38 36
-0.670174 0.326216 1.68031 202 176 32
-0.912328 0.329947 1.76904 10 9 6
-1.44528 0.451554 2.1731 71 70 62
-1.33812 0.442958 2.06264 138 138 132
-0.310545 0.551718 1.77856 66 64 54
-0.258318 0.583634 1.80939 122 123 111
-1.23862 0.43657 1.87897 42 42 38
-1.28409 0.517243 1.76828 7 6 2
-0.68529 0.943747 2.10656 106 100 86
-0.694564 0.845807 1.56489 126 125 120
-0.461217 -0.855892 2.12871 46 42 30
-0.483053 -0.868127 1.97799 34 30 24
-0.425582 -0.78621 1.92714 48 46 42
-0.227371 0.134157 1.89848 76 74 66
-0.60629 0.167466 1.91173 126 102 36
-0.580002 0.140715 1.75738 24 28 14
-0.997244 0.261509 2.03139 5 4 1
-0.984395 0.312411 2.07692 102 102 92
-0.94669 0.27747 1.89675 10 8 4
-0.247927 0.51232 1.89487 16 12 3
-0.651096 0.309772 1.63909 200 173 38
-0.991845 0.279843 1.67809 4 3 1
-1.38496 0.415315 2.07093 60 58 50
-0.39938 0.78892 1.84382 168 133 26
0.25022 1.0298 1.92495 164 157 138
0.221255 1.19628 2.06772 166 159 137
-1.26266 0.481868 1.4673 202 202 192
0.251758 1.24267 2.05083 52 51 46
-0.719383 0.93094 1.8997 137 130 119
