ply
format ascii 1.0
element vertex 1387
property float x
property float y
property float z
property uchar red
property uchar green
property uchar blue
end_header
-2.76739 0.189021 11.492 136 96 77
-0.0699309 0.261865 11.5871 56 61 46
0.153729 1.03867 9.91225 51 26 14
0.231014 1.10509 9.85872 64 42 36
-0.372077 1.19409 10.4004 20 8 2
2.28905 1.0899 11.0279 34 13 6
1.81522 1.14356 10.2504 46 42 28
2.14843 1.21255 10.9873 116 85 66
-1.09937 1.20217 7.77427 93 96 71
2.27885 1.22958 10.8717 50 28 16
2.76783 1.26729 11.1151 74 37 24
1.89706 1.28603 9.96662 114 96 78
-1.15817 1.6719 10.6203 72 30 14
2.42562 1.49971 10.8455 156 132 123
-1.27327 1.72681 10.807 117 91 80
1.99006 1.49571 9.99418 151 134 122
-0.238432 1.65186 10.0137 104 56 28
-1.39484 1.5564 7.83466 100 100 78
3.10039 2.031 13.4063 71 56 39
2.3364 1.91914 11.1423 32 13 8
3.00927 2.21051 13.5545 64 41 27
-1.42581 1.76342 7.28565 85 86 64
1.12427 2.08467 10.519 26 8 4
2.69451 2.68415 12.68 102 86 79
0.120806 2.63842 10.8168 120 92 85
-5.3254 2.75773 7.44496 82 72 53
0.0719554 3.04222 11.0181 54 16 8
1.15212 3.18935 11.4453 43 20 19
0.0905952 3.9531 11.7671 63 18 8
0.139778 4.52706 12.0854 54 20 14
-0.0533038 5.2353 12.8212 122 75 56
0.816707 5.30645 13.1479 126 90 86
-4.99608 -5.2555 11.3604 112 116 73
-4.57613 -4.55375 11.4192 55 56 32
5.10988 -3.62741 9.52239 41 50 24
1.29419 -0.949056 11.2842 86 90 74
2.66422 -0.757231 13.6535 56 52 22
3.53113 -0.210188 11.2261 114 78 63
3.33208 0.0424449 11.2691 134 95 81
3.04655 0.562164 11.3233 129 100 84
1.57994 0.868099 10.7457 49 48 36
-0.980027 0.914142 8.09386 92 94 62
-0.236517 1.04608 10.3937 20 6 3
-1.02712 0.982333 8.10101 100 102 73
2.42228 1.02746 11.4003 45 16 4
-0.421747 1.19755 10.5049 18 8 4
-1.16655 1.28278 10.5376 73 56 42
3.20163 1.30625 13.1192 102 88 74
2.25956 1.24074 10.8833 60 36 22
1.9176 1.25028 9.87215 100 86 66
2.70768 1.32695 11.3976 82 50 39
0.136222 1.46568 10.213 78 49 38
-0.792791 1.65164 10.3701 132 80 52
2.43879 1.48376 10.7706 152 126 120
-1.28098 1.51379 7.52385 88 88 66
2.33397 1.93567 11.2621 32 12 8
1.20716 2.02383 10.5024 112 90 84
2.66676 2.44934 12.5238 38 15 10
0.0137379 3.0749 11.2041 57 22 11
1.12273 3.10604 11.2275 115 84 78
-0.895863 3.45184 11.8748 111 88 84
0.0987234 3.94141 11.6229 60 15 6
0.801687 5.33484 13.0245 78 43 35
-5.00754 -5.24753 11.3507 123 126 82
-4.77399 -4.76678 11.3115 41 46 22
-1.24519 -4.31453 13.0672 81 91 56
-4.84452 -1.66566 13.855 109 90 41
1.30725 -1.76193 12.8517 146 152 116
-3.07371 -1.33207 13.1362 148 140 88
-2.69461 -0.950765 12.5829 131 117 76
-2.76169 -0.734986 12.1039 127 112 72
1.37707 -0.840994 11.9659 155 152 116
2.58329 -0.77805 14.6656 60 42 22
2.06086 -0.573649 14.2531 91 74 60
3.51607 -0.205602 11.4206 138 102 86
-2.08372 0.170174 11.1191 57 57 39
-2.69167 0.44448 11.9462 84 59 36
3.06354 0.65145 11.5129 106 78 58
2.87099 0.74177 11.3289 142 95 78
2.40044 1.02232 11.1855 30 10 2
2.72374 1.0276 11.326 114 74 47
1.78003 1.05786 10.139 15 11 2
2.09493 1.1478 10.8877 28 12 6
2.34625 1.22574 11.2103 77 50 36
2.23752 1.22958 10.7896 84 56 39
1.85527 1.30366 10.2802 98 86 65
0.038711 1.4356 10.0326 44 13 5
2.00191 1.4404 9.7292 122 107 96
2.25405 1.51148 10.6567 77 40 32
3.09275 1.72157 13.2173 116 102 86
-0.0260654 1.67939 10.2982 85 45 32
-1.34585 1.54261 7.70498 96 95 74
1.43208 1.63417 9.62479 150 124 121
2.74259 2.77224 13.2502 60 44 38
0.0929358 2.6555 10.8798 77 48 41
1.04851 3.58625 11.7449 93 72 68
0.255192 5.15217 12.664 100 64 58
-2.84755 -0.753358 12.35 100 81 50
-0.281834 -0.115583 11.9247 27 14 4
2.77716 -0.118223 13.0577 90 80 58
-2.62706 0.456514 11.7268 88 61 38
-0.802022 0.574642 8.2381 79 86 52
3.14113 0.992413 11.9925 83 58 40
2.40169 1.02556 11.3668 30 12 6
2.28018 1.06516 11.0757 36 12 6
1.787 1.05525 10.042 24 21 10
2.18531 1.11397 11.1164 82 56 42
2.26622 1.1376 10.9352 128 107 98
2.09384 1.24807 10.8474 116 85 66
1.93398 1.24567 9.7231 126 106 88
0.21407 1.4516 10.3371 40 16 8
-1.26281 1.51499 7.46076 102 102 80
1.404 1.62716 9.6955 148 123 119
-1.44859 1.79237 7.30143 106 104 82
2.91413 2.53261 13.6192 114 98 86
-1.65376 2.09096 7.12737 88 91 66
2.64995 2.76068 12.8166 78 56 50
-2.53318 -6.77117 15.6436 76 82 34
-4.34775 -1.7936 13.4546 58 50 14
-2.89978 -0.762831 12.4493 106 88 56
2.52824 -0.799555 13.9835 100 97 66
-2.78862 -0.221715 11.9948 116 108 55
2.32675 -0.487266 14.4816 96 80 52
-0.238294 -0.130997 11.6724 30 18 8
3.05966 0.607608 11.1343 128 100 83
-0.502511 1.15467 10.4948 12 6 5
2.38351 1.0099 11.3698 31 12 4
3.18091 1.27546 12.6143 87 72 56
2.82394 1.39548 11.8783 134 96 88
3.14732 1.4914 12.8975 76 53 36
2.37822 1.48664 10.6535 98 70 65
2.18678 1.54045 10.7304 74 37 28
-1.34106 1.71017 7.63841 72 70 48
2.98877 2.17844 13.319 78 54 40
2.89605 2.65751 14.3508 114 101 88
-1.56324 2.85263 6.44531 68 64 34
-1.74396 2.93424 6.70096 135 124 104
0.979058 4.68865 12.4352 94 61 59
0.251591 5.11881 12.6677 88 46 40
-3.00345 -0.200678 11.6357 148 133 78
0.186446 0.920966 10.5757 78 62 52
2.78011 0.935048 12.9392 140 98 83
0.258856 1.09257 9.91106 16 4 2
1.93686 1.2389 9.78047 122 102 84
2.01241 1.40968 9.6639 140 123 113
1.29559 5.05118 12.955 70 38 36
-1.08247 -0.179238 9.31408 127 119 73
-2.74424 0.346915 11.4736 82 45 24
-1.48124 1.1366 8.06059 111 104 77
2.76828 1.26203 11.1898 63 27 14
2.35444 1.56293 10.8528 100 72 68
1.17159 1.62882 10.181 63 25 9
1.11823 3.1028 11.2439 122 95 88
1.95157 3.51757 12.1194 118 94 93
2.07244 4.69212 13.4109 66 34 31
1.75161 4.69057 12.9857 78 49 46
1.92996 3.57298 12.1877 111 88 86
-0.0407894 5.23098 12.7717 92 44 24
4.11105 -1.5798 12.1491 86 82 46
1.58097 0.861612 10.7653 21 18 9
0.267294 1.00383 10.2491 23 11 4
2.27076 1.22576 10.9384 64 40 28
2.32362 1.49323 10.6005 128 98 90
2.28349 1.94438 11.461 74 58 54
1.71361 4.65761 12.8174 112 85 82
1.44403 5.07165 13.118 102 77 74
-1.14567 1.26155 7.78158 88 92 65
1.08034 3.44983 11.5189 122 104 98
-4.58516 -4.54034 11.3893 50 50 28
-1.18559 -1.4874 11.8477 80 80 50
2.27858 1.07606 11.0748 34 12 6
2.18612 1.10625 11.0147 82 55 42
0.19605 1.4743 10.2301 47 18 8
1.15307 1.42727 9.96524 104 68 48
1.11843 3.10074 11.1992 88 54 46
-1.06997 0.998872 10.8369 10 5 2
2.38016 1.50174 10.7167 120 91 86
0.137039 3.83121 11.637 102 58 46
-1.76114 2.95839 6.64223 107 97 74
-4.78072 -4.81106 11.302 39 48 26
0.17632 0.926967 10.6371 70 50 41
2.28986 1.04231 11.6604 46 20 15
-1.16069 1.2271 7.81822 88 91 66
1.90571 1.29823 9.88856 85 67 48
-4.44447 -4.30819 11.5219 76 75 42
-4.04079 -1.99526 13.7306 151 148 94
3.39722 -5.864 12.5793 73 85 38
4.08498 -1.7263 12.2055 77 79 40
4.13811 -1.60693 12.2431 80 84 43
2.79395 1.32586 11.1623 73 38 28
-1.7764 2.98154 6.55503 128 114 100
5.03401 -3.67332 9.61808 58 62 28
2.37521 1.18534 10.8949 72 44 26
2.07593 4.68599 13.4044 79 42 38
-1.56379 1.4599 7.69235 130 121 98
-1.75533 2.94656 6.71318 107 98 76
4.53226 -3.57851 10.1121 118 120 82
0.244198 5.17968 12.7206 82 40 32
4.50796 -3.56488 10.0375 154 160 114
0.0629916 1.49267 10.5849 66 39 30
-4.77536 -5.03628 11.407 80 84 47
3.4503 -1.32375 0.428211 117 120 78
3.66415 -1.04963 12.57 46 40 12
2.83689 -2.14803 10.5787 62 72 52
-3.66089 -1.93038 13.622 106 105 54
3.59233 -1.26007 12.5697 94 101 60
3.53844 -1.14199 12.6075 127 131 92
2.20355 -0.312791 12.9407 32 16 2
-1.14205 1.25455 10.5001 73 54 42
1.70914 4.72857 13.1696 98 70 67
0.222684 3.95511 11.7322 53 18 12
-1.67903 2.91645 6.57684 82 73 48
0.260933 4.37191 12.0122 58 21 16
-4.68864 -4.69144 11.2165 41 42 18
-0.562589 -1.82489 11.0974 154 155 105
4.136 -1.59668 12.2321 80 81 40
-0.488607 1.14696 11.6589 55 36 24
2.69658 2.713 14.5879 47 24 16
2.06237 4.68426 13.4166 73 36 34
2.89916 0.724864 11.2001 127 84 68
2.24587 1.09059 11.269 40 14 7
2.15611 1.14525 10.9874 46 25 12
-1.68077 2.91254 6.5777 104 95 72
1.35295 5.04268 12.9285 117 91 90
-1.92907 -3.41453 8.68409 88 90 44
-3.07084 -1.31243 13.0717 146 139 88
3.51358 -1.14464 12.4349 150 160 114
-1.26967 2.40159 11.212 25 4 0
-1.61278 2.87229 6.53819 84 78 50
2.59209 -0.599223 12.8309 146 153 112
-1.73454 0.270666 9.40988 136 124 74
-0.748984 4.68058 12.9931 106 67 60
-0.0255894 4.57016 12.2929 49 13 4
0.387518 -0.10461 12.2061 88 91 87
0.273188 -0.00828937 12.4692 112 112 112
-0.670914 2.73565 10.7579 28 8 4
-2.23691 2.90623 6.57505 76 72 52
-1.42324 -5.2539 14.0354 106 112 70
5.01609 -3.6509 9.57381 44 45 12
1.42467 -2.30752 6.10183 120 118 81
0.302887 -2.50867 10.7853 120 124 102
-2.54002 -1.50806 13.3649 100 100 50
0.862287 -1.20258 9.31061 86 96 84
-0.938563 -0.794757 10.2578 150 150 104
3.79507 -1.07992 12.4239 130 120 86
-0.45481 -0.321927 9.25156 112 118 84
2.7044 0.640576 11.2135 58 24 8
-1.13709 1.48187 10.4761 108 58 28
-0.783716 1.65079 10.337 89 37 16
2.65136 2.8966 12.7879 30 12 10
-1.95714 -2.63203 12.1947 104 108 65
-0.922717 -0.726046 10.0002 40 44 13
-3.6123 0.277119 14.8396 109 108 70
0.10458 1.43545 10.3858 72 43 33
-0.747052 1.63383 10.2215 134 83 56
1.3397 1.50909 9.92554 132 105 92
-1.57847 1.47001 7.72329 116 108 81
2.41387 1.56169 10.8418 48 26 20
3.10016 2.09192 13.5481 118 106 88
-1.10525 2.73286 11.5092 112 78 68
0.156347 4.56845 12.3787 106 78 74
-2.53503 -6.78757 15.6209 88 92 42
-3.44237 -3.95976 11.7813 99 98 52
-0.930323 -0.725996 9.99385 36 40 12
-1.09236 1.30188 10.4741 68 44 34
-0.78788 1.64584 10.3322 129 78 52
2.40559 1.5662 11.0015 56 33 28
-1.71393 1.76744 7.46626 136 126 104
1.12859 3.11069 11.1763 120 95 90
-2.28928 3.00943 6.55409 124 112 98
5.14074 -3.81225 9.49086 91 97 54
-3.12208 -3.68366 11.7817 97 98 52
-2.51337 -3.14417 11.9836 90 93 50
-1.25491 -1.85502 12.073 76 80 48
-0.893162 -0.712807 9.81722 36 40 14
-2.72904 -0.756198 12.1474 125 112 72
-0.985698 -0.65143 10.0167 93 94 63
0.221739 1.11481 9.95691 52 34 28
-1.70352 1.76698 7.46919 136 128 106
-0.0228717 5.21793 12.6682 96 49 29
-2.20651 -2.85782 12.034 86 87 48
-0.970975 -0.83978 10.3205 152 150 98
2.10519 1.22283 10.871 119 87 70
-1.44697 1.77109 7.31162 87 86 62
1.16898 2.01792 10.6087 80 46 42
1.11326 2.75044 10.9968 92 74 70
-1.74782 -2.3978 12.3878 78 82 43
-1.3854 -2.18889 11.8264 154 152 105
-0.428808 -0.385435 9.77401 47 56 29
2.34352 1.56341 10.7463 108 74 69
-1.11041 2.71756 11.4806 100 64 55
-0.727792 3.95451 11.9724 99 63 56
1.16151 1.44088 10.4254 68 42 23
1.40181 1.65173 9.75 150 124 120
-0.790518 4.02274 12.3094 124 92 86
2.12868 4.77967 13.7893 112 83 76
-0.937213 -0.856904 10.2029 148 147 94
-1.00768 -0.435007 9.26596 44 28 9
0.393244 0.367929 12.3087 113 114 108
-0.491769 1.10634 10.3656 10 6 5
1.21505 1.41389 10.1158 72 47 30
-3.10986 -3.68222 11.7852 86 88 46
-1.40952 -3.7821 12.9732 106 111 66
1.37699 -2.30313 6.24883 156 155 119
-0.624616 -2.74673 12.2277 108 114 79
0.878579 -2.65847 13.2382 61 69 36
1.13629 -1.80896 7.75094 88 92 87
0.844869 -2.61299 13.2777 148 156 126
-1.67577 -2.38173 12.2763 94 98 54
0.837284 -2.52301 13.2705 138 144 117
-0.414872 -2.05619 12.1773 112 119 79
1.86778 -1.47505 11.1071 86 89 76
0.885401 -1.01505 10.2716 108 117 92
0.85909 -0.974587 10.3494 143 150 122
2.85745 -0.67927 12.0376 116 130 87
-2.14031 -0.178919 10.0682 140 134 82
-1.55191 0.0188817 9.88324 74 78 58
-2.06944 0.209218 10.0044 118 113 78
-0.071661 0.266642 11.6337 68 72 58
-0.88402 0.638514 8.43679 93 102 74
-0.975601 0.916339 8.10085 114 120 87
0.236221 1.016 10.3136 42 27 18
0.206323 1.1036 10.0189 52 34 28
1.8029 1.11736 10.4206 32 26 16
0.13467 1.42837 10.2632 86 60 50
1.1672 1.43329 10.3323 54 29 12
1.95872 1.40859 10.2488 135 119 106
1.29545 1.58783 10.1556 64 36 24
3.01941 2.17156 13.3702 62 41 22
-1.14832 2.37313 11.2069 106 70 63
-1.47829 2.59931 11.7086 122 78 64
-1.7901 2.85148 12.2397 140 113 92
2.62903 2.78496 12.6757 47 28 22
-0.901964 3.35678 11.7461 130 103 92
1.11808 3.35767 11.1418 126 105 103
1.6643 4.63192 12.6919 56 25 22
-3.75413 -4.19823 11.7877 60 60 28
-3.43361 -3.95261 11.7684 94 96 49
1.37766 -2.28259 6.19416 153 154 116
-0.578831 -2.69771 11.9898 104 112 74
1.03967 -1.6868 8.25939 96 102 96
0.843822 -1.23876 9.42459 86 93 85
0.764027 -1.0167 9.68773 78 88 77
0.403418 -0.947733 9.63476 70 73 58
-1.97307 -0.00650923 9.81001 76 79 56
-1.57844 0.0105189 9.93088 70 73 53
2.93993 -0.0623861 13.3657 50 28 10
1.55618 0.881672 11.0902 44 41 29
2.79444 1.31892 11.2779 64 30 20
2.89191 1.40356 11.4668 108 78 68
1.44797 1.68282 10.2038 148 132 125
-1.60211 3.34855 12.5345 144 118 98
-3.17479 -3.72817 11.9423 104 104 60
1.04184 -1.69141 8.27551 90 95 89
-1.3479 -2.11219 12.0548 99 104 61
1.58894 -1.20484 11.0748 62 66 52
-2.22115 -0.192874 10.3186 144 136 83
-1.66387 -0.189257 11.0581 148 146 91
-1.91378 0.00436187 9.61599 72 74 50
-1.757 0.14527 10.122 69 66 48
-2.00956 0.223035 9.82881 114 106 70
0.214174 0.871516 10.527 88 75 66
-1.03486 0.990441 8.09769 97 100 73
2.68522 1.36903 11.4015 58 27 18
3.20301 1.54176 13.5355 84 70 54
-1.32874 1.65723 10.7297 99 50 28
1.96902 1.42088 10.343 138 120 108
1.44767 1.65338 10.0008 150 132 126
-1.14383 2.02125 11.0102 57 20 12
-1.64791 3.3939 12.7289 142 117 97
2.04556 3.31355 11.3799 81 50 43
1.35319 -2.20623 6.07785 136 138 96
1.04499 -1.67618 8.15569 84 88 82
0.843024 -1.22121 9.3998 84 92 84
4.09809 -1.56008 11.9362 86 86 50
0.209216 1.04717 10.5611 15 6 0
2.24882 1.11646 10.8685 108 88 78
2.13882 1.22825 10.8691 120 86 67
-1.23644 1.69856 10.6128 122 96 86
-1.10314 1.6649 10.4662 78 30 18
1.43006 1.66668 10.0661 152 132 127
-1.05641 1.99592 10.6484 38 9 2
2.27921 1.89714 11.1826 100 78 74
3.00439 2.19412 13.2504 52 28 11
1.27228 1.99033 10.3325 44 20 16
-1.94033 2.92966 12.7873 140 115 92
1.07651 2.44038 10.7972 36 12 8
-1.0755 2.71293 11.3913 113 82 72
2.80485 2.7088 13.3644 48 26 16
1.10995 3.48212 11.2687 113 96 94
2.601 3.19673 8.4078 80 45 26
-3.46284 -3.89036 11.323 46 50 22
-2.01143 -2.65785 12.3417 96 100 58
-1.56695 -2.29235 11.7679 108 112 70
-0.0271775 -0.964396 10.5045 91 88 48
-0.730575 0.276405 8.71792 78 88 52
0.179156 1.12587 10.1996 42 24 18
-0.119606 1.20886 10.2453 23 12 8
-1.17526 1.70379 10.7585 75 28 16
-1.20736 1.78681 10.9057 40 15 8
2.40291 1.5619 10.8663 78 56 51
-1.23514 1.99575 10.9733 96 56 46
2.73993 2.07673 12.375 71 50 42
-1.74957 2.46108 11.6829 147 128 103
-1.06409 2.89168 11.8263 26 8 6
-1.68451 3.38822 12.7711 148 125 105
2.72766 3.24076 13.3492 92 70 56
-0.911209 3.44941 11.8642 98 70 65
1.12504 3.65183 11.9305 40 14 11
-1.84086 3.01124 6.8486 128 116 98
5.12545 -3.8271 9.6648 156 161 111
-3.44816 -3.95367 11.7327 99 102 55
-1.96915 -2.61173 12.1418 72 78 41
1.36074 -2.05667 8.47886 110 119 82
-1.3151 -2.0613 11.7829 96 101 62
-1.0774 0.960684 8.28815 84 88 61
2.4851 1.05084 11.4064 97 54 24
0.107336 1.22202 9.52506 104 70 60
2.26918 1.87564 11.0358 84 59 54
2.64044 2.4539 12.4933 36 16 11
-2.02247 3.21403 13.2419 139 118 96
-1.53489 3.2807 12.0759 144 128 106
1.16568 3.215 11.6935 42 24 20
-1.63662 3.67899 12.7507 130 105 82
1.09545 3.47942 11.3665 102 84 81
-1.89114 -2.57305 11.8403 91 98 55
-1.36465 -2.0862 11.9156 82 88 51
1.36697 -1.6469 11.7728 82 89 55
-2.75125 -0.362276 11.837 150 142 87
-1.58096 0.508665 8.93904 118 102 63
-2.11905 0.823948 9.69011 131 109 82
2.84241 0.754652 11.0064 152 107 90
2.69713 0.945134 11.0131 116 76 48
0.179516 1.09193 10.3503 46 32 26
2.17613 1.1036 10.7706 69 44 30
2.35577 1.18672 10.8402 87 62 46
2.66095 1.2779 11.4859 141 106 88
-1.48266 1.93563 7.7216 154 144 121
-0.334089 2.64104 10.6796 32 6 0
0.132427 2.57986 10.504 64 32 26
-0.638767 2.76292 10.7189 20 6 4
2.55521 2.89025 12.5207 41 22 16
1.65517 4.84761 13.257 84 58 56
1.40633 -1.67535 11.5858 112 118 80
-2.88872 -0.915035 13.2156 143 132 83
-1.67973 -0.362358 11.1495 148 143 89
2.85855 0.0119101 11.8032 80 60 46
-1.34817 1.74398 7.5514 61 61 35
2.62705 2.35162 11.6701 46 24 20
-1.79107 3.43888 13.0023 142 126 103
2.70638 2.50131 9.3353 79 48 28
0.99478 4.64207 12.5406 112 83 80
4.88765 -3.64611 9.71423 158 160 109
4.87682 -3.65691 9.79478 139 138 96
-1.31527 -4.40622 13.3481 88 96 62
4.11981 -3.35809 9.95197 126 130 85
3.35031 -2.72107 10.2095 90 96 68
3.23261 -2.46413 10.4724 72 80 66
2.41779 1.48933 10.6341 152 127 118
-1.25217 1.74331 10.7268 127 102 95
4.95038 -3.65613 9.55501 158 160 111
4.91405 -3.65313 9.61501 148 150 100
-0.617846 -3.77084 12.9655 95 106 56
3.63871 -2.93034 10.0927 76 84 55
0.210747 0.946111 10.7236 99 79 68
5.00775 -3.64512 9.50025 56 58 23
3.62953 -2.90429 9.9432 73 80 52
2.35085 -1.88073 10.5286 71 76 58
3.66373 -2.95645 10.1758 76 83 55
0.227007 -2.92542 10.8972 132 138 89
3.12295 -0.162777 13.3879 118 98 72
2.58936 1.48167 11.3327 82 54 48
1.60861 1.67393 9.2146 76 64 46
3.29698 -5.66064 12.0037 72 86 46
1.59442 -1.21394 10.9554 50 56 40
2.1537 1.63981 9.02172 82 62 44
-1.25432 2.43135 11.2842 24 8 3
-2.85335 -0.865489 12.6737 94 76 48
3.50313 -0.166869 11.4747 134 100 83
2.75728 -0.114384 11.3262 96 80 60
-4.9584 -5.21923 11.2998 87 88 46
-2.05318 -5.5779 14.2579 100 99 57
4.53901 -3.58153 10.1142 89 92 50
3.07733 -2.50491 10.3268 68 76 52
-2.07893 -2.29609 11.8097 66 69 45
2.34817 -1.91585 10.7475 76 81 60
2.33292 -1.89106 10.7043 82 88 66
0.774269 -1.03124 9.78442 74 84 70
3.59126 -1.26624 12.5575 102 108 66
3.84364 -1.15531 12.6469 144 148 110
-0.335812 1.20132 10.3676 34 8 4
-1.46119 1.18686 7.9728 151 143 118
3.2006 1.55407 13.4431 102 92 78
2.40687 1.41343 10.7838 82 57 47
2.42955 1.54113 10.7131 74 54 50
2.37318 1.5857 10.6263 134 104 100
2.22521 2.25549 11.4282 120 100 97
2.88705 2.69305 13.7551 51 28 16
2.1294 2.58097 11.614 120 98 93
2.30411 2.90173 12.0735 106 76 73
-0.90892 3.37358 11.8073 124 90 80
2.591 3.36273 13.1697 105 84 80
1.09067 3.56414 11.5292 114 96 92
2.47254 3.96797 13.5359 98 74 70
2.12942 4.8556 13.7725 76 48 41
1.64042 5.01577 13.2242 68 50 46
0.268382 5.01354 12.5639 57 18 10
1.47164 5.03845 12.9984 60 33 30
0.862991 5.31017 12.9868 70 30 19
0.659176 5.2774 12.5913 106 69 58
-5.80106 -5.85052 11.6803 98 93 48
-4.54527 -4.5282 11.3199 47 47 24
3.58389 -1.27507 12.5352 140 151 106
-2.8189 -0.976481 12.8273 88 74 42
-0.0613034 0.268425 11.5592 57 61 47
3.1883 1.41461 13.3528 68 54 42
2.79954 1.33597 11.1238 85 52 38
-1.30542 1.51704 7.59373 100 102 80
-1.2334 1.63454 7.5945 104 108 86
3.09293 2.08387 13.8702 58 47 31
3.09479 2.15217 13.8665 93 82 68
2.19005 2.0224 11.3336 25 3 0
2.7438 2.37819 12.7442 98 74 64
2.27506 2.21202 11.1502 76 55 50
2.10594 2.32373 11.5241 34 11 10
2.68432 2.44882 12.7031 37 20 12
2.66254 2.81775 12.9696 76 62 57
-0.888667 3.46107 11.8741 115 90 78
0.250961 3.94024 11.6297 51 12 3
1.65855 4.97748 13.1272 79 61 58
5.03626 -3.65103 9.55401 45 49 16
2.5726 -2.12123 10.6708 70 75 54
-1.65406 -1.91516 11.8106 78 79 52
0.761545 -2.15853 13.2241 119 125 82
4.06694 -1.71138 12.2009 72 70 32
-2.79191 -0.969512 12.7908 70 56 27
-1.14805 1.31421 10.7178 47 28 17
1.7743 1.09155 10.2674 15 12 3
-1.1587 1.2344 7.84436 92 95 70
2.39894 1.55396 10.8727 124 100 95
2.30959 1.60399 11.1276 92 64 59
1.39862 1.57687 9.60746 110 78 62
0.0783978 2.28119 10.6499 100 70 66
2.21854 2.23257 11.3667 100 75 72
2.58108 2.89508 13.0187 38 22 19
-0.93806 3.40068 11.9079 116 78 67
2.564 3.38385 13.291 87 64 60
2.45115 3.99073 13.6775 95 70 64
-1.7517 2.93914 6.69748 102 92 68
2.28939 4.63957 14.008 94 65 58
0.207203 4.44124 12.1994 62 28 22
0.116115 5.30922 12.7847 100 58 43
-5.5713 -5.64684 11.2438 82 79 38
-4.52912 -4.84559 11.4971 124 122 78
2.58883 -2.09355 10.5383 72 76 54
-4.48182 -1.82472 13.743 56 44 8
-3.05994 -1.32283 13.1698 150 142 96
-1.16396 0.989049 10.9823 22 10 4
0.262461 1.17988 9.82697 18 6 0
-1.51915 1.74145 11.2774 107 60 36
2.71088 1.42387 11.1611 100 71 64
2.55467 1.47368 11.1822 34 14 6
-1.34821 1.68176 7.77163 136 138 116
2.26887 1.91335 11.2356 113 92 92
2.20598 2.00424 11.1817 24 2 0
2.67552 2.43927 12.6322 33 15 10
-1.02115 2.70009 11.2811 108 72 61
2.56534 3.36308 13.1893 80 57 53
2.30267 4.61022 13.8549 94 68 60
0.202842 5.04961 12.5421 117 80 68
1.06744 5.16868 12.9298 72 35 30
-5.55386 -5.65299 11.2684 74 70 32
5.05425 -3.68954 9.6264 40 47 15
2.54368 1.47401 11.2024 96 74 66
-1.37509 1.70901 7.77587 100 97 76
2.2586 1.90532 11.252 64 36 33
2.74443 2.07968 12.4288 22 8 4
1.09796 2.07941 10.5568 30 9 4
0.0785927 2.29822 10.6544 89 61 56
-0.925779 2.73978 11.296 41 14 6
2.67786 2.75287 12.7873 62 48 42
0.11038 5.12328 12.7372 110 68 55
2.97214 2.20542 13.2545 46 24 15
-1.22076 2.38182 11.0949 46 13 3
-0.40263 2.66852 10.9698 36 6 1
-0.69702 2.86572 11.2656 28 6 0
0.216957 4.3804 11.8747 116 80 72
0.138668 5.26615 12.5526 115 70 55
-2.91845 -0.956305 13.167 153 142 89
-1.35688 1.54372 7.65735 90 90 68
2.68682 2.12251 12.613 28 10 6
-2.87172 -1.00432 13.1692 104 88 52
-0.204611 0.480042 13.845 93 92 85
-1.34172 1.09667 10.6542 35 28 15
2.27996 1.45197 10.1676 90 56 48
2.68381 3.63992 14.2709 79 44 30
-3.71811 -4.1795 11.7053 83 80 38
-3.8221 -3.99961 11.4699 79 82 55
4.58533 -3.63193 10.2577 148 150 109
2.8044 1.34806 11.1845 99 62 52
1.93737 1.41675 9.81443 120 102 86
3.09625 2.07723 13.8265 55 46 32
1.82735 4.16572 12.4924 114 90 84
2.01967 4.66765 13.2555 112 85 81
2.32879 -1.89489 10.716 74 79 59
1.94963 1.42207 9.77123 120 102 86
1.40094 1.47233 9.58415 125 97 75
-1.68219 1.76346 7.41064 132 124 106
2.19965 2.25439 11.4351 108 83 80
0.151427 2.61935 10.7251 116 88 82
-0.639706 4.66286 12.7279 111 76 69
2.1811 4.7076 13.6472 113 86 80
-1.63454 -5.55383 14.3421 88 92 58
-2.05167 -2.28947 11.7386 58 62 38
3.28872 1.15868 12.8865 86 68 57
1.95812 1.41699 9.77605 105 90 70
1.4763 1.65094 9.56943 142 113 98
2.28863 1.88089 11.1951 107 82 79
0.94293 -3.00344 13.2435 124 128 87
1.75625 1.04812 10.2431 23 22 10
-1.4277 1.12553 7.98172 142 132 108
-1.18638 1.34147 10.8622 46 25 13
-0.681584 4.67336 12.8144 118 82 74
0.0950756 5.31226 12.775 99 56 42
0.203588 1.15254 9.93489 42 25 18
3.08805 1.71438 13.3282 82 65 50
-0.823549 4.01841 12.3422 100 60 52
2.481 3.92248 13.3991 80 51 46
2.32791 4.56753 13.7475 85 56 50
-5.55467 -5.64867 11.2299 90 88 48
0.200183 1.17392 9.95634 41 26 18
2.70744 3.68036 14.3516 79 49 33
0.251871 5.17092 12.7306 78 34 25
0.153815 1.18865 10.1141 23 11 6
1.42892 1.58852 9.3922 159 122 104
-0.712073 2.85402 11.2015 31 8 2
0.066906 5.30376 12.7473 113 68 54
3.90762 -3.077 10.0964 58 61 36
-2.22414 2.91935 6.52681 144 134 117
-4.04083 -4.35188 11.4613 87 88 66
-3.10917 -3.68291 11.812 98 96 50
1.10869 -1.7637 7.90742 88 90 84
-1.4174 -1.69254 11.8352 73 77 48
4.07311 -1.72291 12.2463 70 69 30
0.761612 -1.24468 9.20649 84 90 76
-0.771918 -0.973482 10.6029 99 102 64
-2.82887 -0.955768 12.8607 129 117 80
2.89588 1.40841 11.4272 94 64 54
2.20681 2.01803 11.278 28 7 5
-0.659107 4.70023 12.8066 116 86 80
1.02544 4.57543 12.2769 122 97 93
0.301654 5.23965 12.5667 152 116 104
-1.94899 -1.3282 12.1331 122 120 68
0.756047 -1.25089 9.2071 74 78 66
0.846797 -1.22519 9.38379 86 90 80
-0.943072 -0.895589 10.4806 60 59 22
-1.84451 1.27024 12.1905 104 80 62
2.9184 1.4672 11.5538 114 86 75
2.39557 1.56702 11.0375 70 48 44
2.77138 2.04152 12.3664 30 12 7
-1.8911 2.61933 12.3425 138 113 92
2.28151 2.91589 12.1586 102 73 70
0.0862086 3.04449 11.0154 56 20 8
-3.75209 -4.19384 11.746 84 80 44
-3.87541 -3.8916 11.4114 82 80 58
-3.91916 -3.82514 11.4725 58 57 34
3.64334 -2.93219 10.0971 72 77 52
3.3505 -2.71028 10.1814 69 72 48
-1.58495 -2.17687 11.9679 86 86 56
4.13098 -1.57373 12.2122 88 88 50
-0.798125 -0.903421 10.2052 112 110 70
2.68788 1.43861 11.2711 98 69 60
-1.6575 1.7539 7.37166 130 120 100
-1.11157 2.38559 10.925 30 8 1
-1.80314 2.978 6.63429 142 129 114
0.2071 4.49261 12.0954 120 94 92
2.17539 4.69724 13.5974 112 86 78
-4.1289 -4.16201 11.2962 90 90 67
-3.71078 -4.16696 11.6773 88 84 44
4.10683 -1.58003 12.2835 88 85 48
0.283423 0.864244 10.371 59 48 38
-1.69968 1.77787 7.42539 131 120 100
1.29102 2.06355 10.5049 21 8 4
-1.87907 2.79606 12.4218 108 80 58
-1.96936 3.02555 12.8954 149 124 102
1.18194 2.70422 10.8363 122 104 100
1.11503 3.12325 11.2628 124 98 92
-3.10229 -3.64939 11.6945 52 58 24
-1.23247 -1.50016 11.9742 88 86 60
-1.50243 1.784 11.457 96 61 46
-2.0202 2.21388 12.1759 157 138 116
-1.41838 1.77199 7.24109 93 92 71
1.20739 2.02212 10.491 104 80 75
1.31533 2.04325 10.4615 20 10 5
2.82708 2.68589 13.663 45 22 13
1.22002 2.43183 10.8839 27 11 8
1.03361 2.78353 11.0023 44 16 13
1.09873 3.4998 11.4368 104 82 80
1.00129 4.67099 12.4048 120 104 102
-3.34581 -3.88656 11.5394 72 78 34
-1.52363 -2.49923 10.8298 134 134 87
4.0949 -1.60082 12.3911 88 82 47
2.7742 2.01886 12.0325 24 10 6
1.0402 2.10392 10.6474 26 7 2
-1.91815 2.82495 12.4965 136 110 88
-0.950492 3.41616 11.8925 80 48 40
-0.826804 5.09051 13.1306 101 72 64
4.02806 -1.67555 12.2363 86 84 44
-1.32787 1.74405 7.59678 144 138 117
-1.3438 2.45151 11.4335 42 16 8
-1.00881 2.8566 11.6048 24 9 5
-1.58066 2.84224 6.56179 86 81 52
-0.013091 4.56919 12.2325 46 11 4
-1.77766 -3.34051 8.45774 73 74 26
-3.1401 -1.31206 13.0843 149 143 84
-1.6084 4.13843 13.4116 140 116 96
-2.51356 -6.84524 15.8078 110 113 66
-1.24017 -4.91202 13.8797 110 116 70
-1.49027 -4.77871 13.604 95 99 67
-1.2443 -4.30533 13.1118 96 106 71
1.43419 -2.29159 6.06682 108 104 66
1.27308 -2.26274 6.51802 142 139 100
1.18652 -2.23439 6.72649 138 136 100
1.13453 -2.15588 6.79165 143 142 109
1.15012 -1.66423 8.45014 89 99 89
-3.65981 -1.92295 13.6056 101 100 47
-0.991217 -1.46971 11.8743 70 74 42
-1.98256 0.209535 9.80749 116 83 60
-0.959341 0.982517 7.92393 96 100 70
-1.18056 2.03381 10.9119 113 79 72
1.23813 2.09941 10.6582 26 7 2
-1.77811 2.56025 12.0382 141 114 91
1.19506 2.0764 10.3091 31 7 4
2.11981 2.33433 11.5573 26 6 4
2.89232 2.56836 13.5791 110 92 79
0.166622 2.59261 10.6416 112 84 77
2.791 3.18097 13.6379 100 76 58
-1.52362 3.38111 12.4899 130 98 82
2.5861 3.38626 13.1285 112 91 88
1.10128 3.41042 11.4023 122 104 99
1.1273 3.94871 11.5704 122 94 92
0.182791 4.50316 12.1901 121 97 94
-1.47788 -5.2989 14.1776 98 104 59
-1.29815 -4.35889 13.2724 94 104 70
1.46335 -2.34253 6.02182 152 150 104
-2.2452 -2.88059 12.1389 105 103 61
1.06747 -1.69099 8.1906 90 93 87
-3.67294 -1.92902 13.6482 116 116 61
-1.15905 -1.80798 11.8474 88 89 56
-0.662242 -1.06741 10.9649 72 74 38
0.187411 1.13062 9.99091 62 38 31
1.95239 1.53393 9.99586 142 127 112
-1.96177 2.20111 12.0899 156 136 114
1.10248 2.46085 10.81 37 12 8
2.80303 3.17398 13.6129 106 86 69
-0.900001 3.35526 11.7565 103 66 54
-0.851336 3.41077 11.8956 54 20 12
2.60048 3.32604 13.0771 102 76 72
2.57356 3.38658 13.1567 90 70 68
1.16448 3.37486 11.4125 58 28 22
1.13233 3.38542 11.296 122 104 98
-1.24319 -4.91409 13.8622 100 105 64
1.08696 -2.28623 6.89699 142 148 100
1.1281 -2.27707 6.93429 120 119 82
1.13253 -2.16587 6.77657 130 132 95
-0.521476 -1.75433 11.2063 155 152 106
-1.39238 -1.66931 11.7825 72 75 46
0.87296 -1.2137 9.24519 86 91 81
-1.30218 1.54529 7.53144 98 96 74
-1.25517 1.65 7.58295 110 110 87
1.29621 1.79294 10.4002 34 8 2
2.09123 2.34814 11.6429 29 8 6
-0.978845 2.67049 11.1286 122 86 76
1.2389 2.41865 10.7619 24 8 4
2.78679 3.22729 13.8968 117 98 82
1.14943 3.10119 11.1258 126 103 97
-1.57259 4.09605 13.3976 138 111 93
0.235122 3.96397 11.7248 52 13 3
-1.62084 -5.53447 14.3058 78 86 52
-1.57284 -5.42721 14.2852 122 127 88
-1.57009 -4.85333 13.7783 87 92 60
-1.3157 -4.39192 13.3732 92 102 67
1.38597 -2.26264 6.18165 153 152 106
1.23552 -2.24381 6.56781 153 154 106
-2.4605 -3.11105 11.8019 108 108 64
-2.23852 -2.87142 12.1051 90 90 50
0.74889 -2.16517 13.2553 136 143 98
-0.558859 -1.76752 11.2498 152 150 100
-0.292717 -1.08306 10.9721 48 56 16
-1.99411 0.242932 9.49384 141 128 89
-1.6094 1.46837 7.78934 136 127 103
1.29117 1.50627 9.76757 132 99 86
2.37567 1.58911 11.1731 62 42 38
1.48183 1.63148 9.59074 146 122 117
-0.392597 2.67146 10.9251 44 8 3
-0.801783 2.77606 11.0076 22 4 2
-0.916356 3.38596 11.8147 118 86 78
1.17394 3.37832 11.3523 55 27 23
2.5088 3.83412 12.9843 76 48 42
-1.63503 2.87975 6.62553 85 79 48
-1.93297 3.02055 6.95815 115 102 84
1.30561 -2.26001 6.33545 134 135 86
1.12306 -2.18713 6.80656 132 134 97
-1.2993 -1.87009 12.1965 85 86 54
0.206282 0.932165 10.6094 90 73 62
-1.19166 1.2448 7.88744 87 86 57
2.68087 1.44084 11.5625 100 70 61
2.16361 2.2639 11.6286 94 71 69
1.13094 2.4015 10.874 88 58 54
-1.18957 2.59537 10.6062 144 124 102
2.73207 2.78562 13.054 33 17 12
-0.666532 2.83827 11.164 29 6 1
1.11581 2.74718 10.9753 68 40 39
2.78084 3.183 13.679 88 62 42
-0.928918 3.39349 11.8353 104 70 62
2.75103 3.59598 13.8557 80 50 35
-1.58676 2.85304 6.57958 75 70 39
-0.674854 4.9634 12.6512 108 78 71
-3.71573 -4.16895 11.626 92 89 56
-0.338788 -1.11483 11.0093 46 55 16
-1.5536 0.291157 9.3491 152 141 104
2.37165 1.42187 10.8882 105 80 74
2.40192 1.58135 11.0709 35 15 11
-1.2639 1.68093 7.54665 110 106 84
1.21139 1.98714 10.4075 82 49 44
-1.6481 3.47196 12.7838 146 128 107
1.16514 3.41002 11.0708 104 83 80
-2.89504 -3.55149 11.2865 104 106 62
3.84606 -3.06962 10.0059 72 72 44
2.8148 2.63553 12.8039 32 14 8
2.86959 2.97308 13.7198 96 62 35
2.78575 3.17752 13.6205 85 58 40
-1.71987 3.79342 13.1931 116 80 58
2.77453 3.4697 13.1929 80 46 31
-1.28086 3.90693 12.4207 141 119 100
-1.54992 4.40042 13.4712 136 113 97
1.08583 3.98373 11.5766 72 36 33
-4.49174 -1.8665 13.7796 103 96 50
-4.90414 -1.69341 13.9753 106 88 38
-0.27766 1.10887 10.2541 74 48 40
2.81905 3.09546 13.1143 86 56 38
-0.888227 5.10372 13.2914 130 102 94
3.35213 -2.76109 10.408 86 90 67
1.04884 -1.46925 8.9678 91 102 87
2.1249 -1.70149 10.8926 74 80 58
1.29359 -1.75234 12.8727 146 150 116
-1.17962 -1.47335 11.9384 87 88 60
-2.64459 0.618822 11.7892 88 52 31
-0.988186 0.910388 8.12294 110 115 82
-1.29299 1.74674 10.8675 108 79 70
-1.6331 1.53215 7.81711 140 134 104
-1.35713 1.56485 7.68349 106 106 83
2.82684 1.69972 11.7196 34 14 8
-1.31408 1.66459 7.72795 139 142 122
-1.38124 1.75625 7.20486 105 105 84
1.1837 2.47287 10.9762 32 12 8
3.07585 -2.52217 10.3748 68 75 50
-2.05621 -2.28567 11.7496 66 70 46
2.37639 -1.50593 8.74699 67 73 53
-1.50246 1.20096 10.7976 76 62 40
-1.53767 1.27152 10.5931 110 80 50
2.74564 1.49359 11.624 71 41 32
-1.44364 1.77179 7.34144 101 101 79
0.434549 3.64497 11.3961 106 56 46
-2.01729 3.0943 7.23987 93 81 60
2.83202 -2.32188 10.4933 58 64 38
2.57234 -1.65931 8.55738 72 76 56
1.31101 -1.77419 12.8669 156 161 123
2.19793 -1.27375 8.52614 54 58 40
0.905285 -0.966378 14.9021 158 160 125
2.571 1.48907 11.3277 50 23 16
-2.09059 3.01887 14.4081 36 8 0
-0.961527 2.88213 11.4828 20 4 2
-1.85665 2.37526 6.9917 84 88 64
1.88864 -1.46271 10.9397 78 84 69
-1.20308 1.28368 10.8136 68 39 29
2.16653 4.71293 13.6754 114 84 78
0.887861 -0.940693 14.8206 145 142 113
-1.78216 2.95733 6.83157 94 86 58
-0.224642 1.16379 10.6232 14 8 4
-1.55392 1.92841 7.97317 158 150 131
-1.58738 2.86956 6.43494 90 80 56
-1.50534 1.7949 7.3955 77 76 50
-0.270133 1.14378 10.8217 14 8 4
-1.09342 1.47687 9.19982 96 54 28
0.207667 4.49292 12.0883 112 83 81
-0.840628 0.671469 8.6213 27 30 14
1.1778 3.14767 11.2374 42 20 19
-0.799424 4.04014 12.3453 122 90 84
4.97321 -3.60063 9.40806 140 140 100
4.68764 -3.55306 9.83208 110 112 72
1.02116 -2.10933 7.06261 102 97 60
0.829169 -3.05653 13.616 102 104 63
0.705205 -1.93949 7.84296 137 132 96
0.692395 -1.90228 7.84736 104 100 58
2.58707 -2.08725 10.5147 86 90 70
-1.6824 -1.91991 11.8909 78 81 56
0.724727 -2.18532 13.3671 92 96 56
-3.96178 -1.98563 13.6825 114 111 57
-3.80024 -1.95645 13.857 122 118 64
1.89806 -1.4982 10.9871 71 75 60
0.978112 -1.36701 10.424 99 104 68
1.88268 -1.44631 10.8809 82 85 70
1.60765 -1.18487 10.9961 76 80 63
-3.00694 -1.02505 13.5321 115 104 64
-2.89119 -0.967707 12.942 112 100 58
0.0169828 -0.912036 10.2728 90 88 54
-2.86096 -0.832529 12.6811 106 96 43
-2.84066 -0.777022 12.4039 134 121 74
-1.09805 -0.429568 9.8068 113 110 60
0.809753 -0.792949 15.3741 60 42 23
-2.3381 0.540272 12.78 128 109 90
-3.99733 0.70693 7.8064 78 75 55
-2.26659 0.734953 12.2655 150 135 114
-1.33191 0.787113 8.34869 117 111 86
-0.940767 0.889741 8.45447 160 155 134
-1.00821 0.91972 8.1204 108 112 85
-0.104129 0.957438 10.2888 40 30 26
-0.884532 0.96134 7.83492 106 108 80
-1.05506 1.18668 7.72195 102 108 86
1.84358 1.11758 9.9883 60 54 43
-1.83349 1.55349 11.1208 132 95 75
-2.30667 1.71901 11.9852 161 134 116
-2.06546 1.83002 12.0194 164 125 102
0.290217 1.43499 9.84617 104 74 60
1.30658 1.4055 9.83795 88 68 43
-1.26798 1.59253 7.74411 112 118 100
2.0586 1.46645 9.41044 135 110 96
2.29369 1.88619 11.2076 120 102 98
1.26504 1.9848 10.3202 92 72 56
2.23813 2.00655 11.1454 30 6 3
-0.859547 2.34196 10.8821 112 69 58
2.87912 2.60477 13.842 94 74 64
2.87449 2.66483 14.1176 84 68 54
-1.06683 2.74781 11.4297 102 70 59
2.68873 2.6994 12.9114 116 100 92
2.02511 2.71136 11.7432 34 8 4
0.0873573 3.02708 11.1625 120 88 78
0.147591 3.0327 11.0365 116 88 80
2.06684 2.98118 11.7643 98 71 66
-0.892855 3.48904 12.0203 48 11 2
-0.811308 3.4443 11.7078 110 76 68
2.56026 3.43044 13.3592 112 89 83
2.07922 3.35197 11.8217 82 51 47
1.99745 3.45777 12.0176 112 85 82
-0.755721 4.02848 12.2391 112 78 68
2.46703 3.99332 13.5889 107 82 80
-0.549057 4.54 12.445 118 74 67
2.32581 4.59436 13.8939 100 72 65
0.104095 4.67801 12.5022 54 17 11
2.18579 4.78698 14.034 58 33 25
2.0622 4.70376 13.3818 65 36 32
1.97005 4.77411 13.5002 119 98 95
1.7491 4.69268 12.9493 74 47 46
0.228849 4.96832 12.4411 124 79 68
-0.0360379 5.19491 13.0375 98 52 33
1.56223 5.01189 13.0462 57 32 29
1.4548 5.02386 12.8174 84 62 61
-1.52239 -4.80508 13.6711 87 92 59
3.62524 -2.93921 10.1306 77 82 53
-0.826909 -0.98002 10.7311 96 96 60
-1.15982 -0.984153 11.2361 40 42 16
-3.06609 -1.03288 13.6492 99 87 52
-1.08297 -0.871475 10.719 66 66 39
1.20664 -0.955207 11.5043 74 79 60
-0.563657 -0.65916 10.8393 42 46 18
0.698289 -0.866895 14.243 150 151 118
0.907299 -0.915505 15.3864 112 88 52
0.904107 -0.847335 15.4121 157 146 110
0.813619 -0.791557 15.3668 70 52 36
-1.85403 -0.344864 13.0226 144 137 88
-2.7306 0.67567 13.3708 128 109 90
-1.10635 0.97086 8.21938 95 97 68
-1.78568 1.29959 12.0656 99 76 56
1.65011 0.933962 10.5404 21 23 8
-2.29912 1.43037 12.9021 97 78 64
-1.46587 1.1377 8.04635 124 115 92
-1.02419 1.32158 10.4609 50 30 12
-1.63287 1.42021 10.6802 118 76 50
-1.07647 1.18876 7.75681 85 94 70
-1.75713 1.57292 11.1446 79 43 22
-2.01393 1.71971 11.7131 152 116 92
0.0226012 1.48709 10.3247 52 18 8
1.94834 1.30639 9.71039 120 100 80
-1.17168 1.69804 10.7161 70 24 4
-1.20314 1.49423 7.41261 99 100 78
-1.25229 1.53632 7.42742 94 94 76
-1.46887 2.24629 11.8747 36 7 1
2.2706 1.89491 11.3072 120 96 93
2.2953 1.9554 11.3719 24 8 6
2.9162 2.55422 14.0427 126 114 102
-0.961338 2.68521 11.1764 105 68 58
-1.81485 3.07601 12.6345 154 125 108
2.17863 2.54265 11.3944 95 73 69
2.71849 2.6723 12.6991 104 88 80
-0.582582 2.841 11.1123 38 6 0
2.11792 2.63792 11.5855 107 86 82
2.3235 2.87354 11.9528 100 70 64
-1.88076 3.65209 13.4322 143 116 100
2.78596 3.21767 14.1643 116 102 86
0.276588 2.9285 10.6769 118 86 75
2.0463 2.99656 11.8437 90 60 55
-0.845796 3.3538 11.6768 114 75 64
2.03771 3.38626 11.9817 80 48 44
-0.817822 4.02942 12.3594 106 62 52
0.266238 4.37673 12.0098 60 18 8
0.226767 4.46759 12.0249 109 78 70
1.03654 4.55382 12.2066 110 79 77
1.42295 5.17057 13.5862 57 32 27
-0.0294374 5.22779 12.7772 119 69 51
1.45413 5.00644 12.7833 120 98 97
1.11446 5.11588 12.7517 74 37 30
0.998529 -2.12511 7.09806 132 128 84
0.973846 -2.98944 13.1375 128 130 86
3.08096 -2.52709 10.3665 58 66 42
0.775262 -1.9201 7.66304 152 148 102
2.33265 -1.9091 10.7376 73 78 56
-4.0454 -2.0093 13.8192 135 130 76
-1.00785 -0.96137 10.9324 43 44 16
-2.99967 -1.02814 13.5022 104 92 56
0.927338 -0.79437 15.212 160 150 112
-1.09523 -0.432215 9.8086 113 110 60
0.896729 -0.783296 15.1397 64 48 27
-0.758096 0.730576 8.56334 124 86 60
-1.16566 0.818017 9.00015 116 104 76
0.138766 0.957812 10.8671 75 54 39
-0.943125 0.948301 7.94765 100 101 72
-1.1241 1.08918 9.56687 96 75 48
-1.83385 1.66441 11.3689 156 119 93
-1.66199 1.74772 11.4083 120 75 48
-1.22704 1.71707 10.8323 70 24 4
-1.2463 1.49751 7.48154 84 86 64
2.36239 1.57086 10.62 126 92 85
-1.44705 1.68113 7.94023 108 111 88
-1.98628 2.27298 12.1941 130 102 82
-0.778011 1.98804 10.3476 74 46 39
-1.06008 1.66916 6.73684 93 96 74
1.22755 2.02295 10.4651 91 70 56
1.11048 2.10797 10.612 25 4 0
-0.902933 2.96858 11.7755 32 6 2
0.260671 2.65277 10.6087 49 22 17
2.09151 2.65161 11.7197 104 84 79
2.08874 2.65328 11.4549 36 12 6
0.280327 2.92644 10.6675 118 86 75
-0.0171288 3.08897 11.2677 52 17 7
3.09465 -2.52338 10.3405 60 68 46
0.816093 -1.85772 7.56683 114 111 68
-1.17545 -1.48064 11.9066 84 84 54
-2.62182 -0.973836 12.7924 132 122 77
0.71676 -0.831809 15.0297 84 66 42
1.03225 -0.793283 15.6982 161 144 102
-1.09796 -0.468138 11.46 34 32 10
-2.45343 -0.369292 14.2683 144 135 86
-2.32949 -0.198122 11.1769 140 132 78
-2.52929 0.542897 13.1775 113 94 72
-2.24355 0.699645 12.2732 142 124 102
-1.15719 0.993145 8.29226 98 98 69
-1.83666 1.22519 11.5355 38 20 4
-2.01337 1.26992 12.436 129 108 96
-2.16171 1.38926 12.412 27 12 2
-0.19751 1.08874 10.3809 15 8 4
-1.31654 1.11758 7.7936 118 110 88
-1.94639 1.70944 11.6292 168 132 102
-2.08749 1.76898 11.6577 116 92 73
-1.88715 1.76416 11.648 168 128 104
0.258819 1.40437 9.68699 54 18 10
-1.52636 1.4618 7.64399 130 122 102
-1.30833 1.52521 7.55418 93 93 72
2.33361 1.57946 10.7536 128 94 86
1.52447 1.61331 9.3264 143 99 78
-1.68255 1.76505 7.40542 134 124 104
-2.08808 2.74821 12.7365 146 124 105
2.11614 2.31787 11.4281 27 6 2
-1.90776 3.12001 12.8454 154 125 108
-0.499798 2.72113 11.2343 40 8 4
0.214721 2.59265 10.5534 87 56 49
1.21169 2.6672 10.7568 112 88 84
-1.02195 3.29532 12.0988 40 5 0
-1.66357 3.55348 12.9772 143 116 100
2.72518 3.32249 14.0443 45 18 10
-1.0634 3.49966 12.2167 120 87 78
-1.40354 2.82238 6.10557 142 128 112
0.231586 4.57766 12.2331 52 15 8
1.55416 4.9945 13.0252 58 32 26
0.339254 5.17264 12.733 104 56 43
0.849463 5.27088 12.8284 79 39 26
0.628468 5.33623 12.7405 102 64 50
5.12557 -3.82544 9.54319 132 134 86
0.755059 -2.03528 7.61739 109 105 60
0.623751 -1.9222 8.01324 104 100 58
-1.8159 -1.23674 12.2407 74 74 46
-2.79622 -0.978032 12.9237 82 67 36
-2.92823 -1.01163 13.3707 106 94 56
0.486131 -0.826819 11.8016 128 133 93
-2.75506 -0.476885 11.8592 106 86 42
0.715829 -0.807224 14.8889 79 58 34
0.866411 -0.817456 15.5574 158 147 112
-0.374458 -0.409126 9.7721 68 70 29
-2.66326 -0.369232 14.682 146 138 82
-1.36192 -0.19472 9.8122 142 138 84
-2.2289 0.507734 12.6013 96 76 54
-2.43247 0.710555 12.6249 122 105 82
-0.881851 0.580964 8.45894 82 83 52
-2.90578 1.00298 12.4559 117 83 52
-1.35657 1.014 9.02307 106 109 86
-1.42492 1.13414 7.9491 132 122 101
-1.65403 1.41745 11.7948 69 48 34
-1.09557 1.1978 7.75057 82 88 66
-1.70271 1.46334 10.8333 102 59 36
-1.24112 1.28034 7.92484 96 96 71
1.82788 1.32533 10.1323 110 90 72
-0.886751 1.98189 10.7315 132 84 70
-1.72345 1.76993 7.46623 134 126 107
2.14545 2.26355 11.5624 73 44 41
2.27906 2.19417 10.7101 40 19 15
-0.874167 2.73219 11.2129 32 6 1
2.83767 2.73041 13.8828 32 16 10
0.245091 2.55899 10.463 86 52 44
2.65754 2.77267 12.8885 60 44 42
2.77137 2.74846 12.8174 34 18 11
-0.806519 3.16849 11.559 48 8 2
0.134743 2.99951 11.0208 110 76 65
2.69464 3.32717 14.0514 55 28 21
-1.11092 3.51359 12.2921 112 76 68
-2.19722 2.9311 6.48239 106 98 78
-1.47986 2.84427 6.27277 136 124 106
2.2092 4.75916 13.9711 74 47 40
2.11268 4.76533 13.7696 112 88 80
1.02822 4.64014 12.2748 102 76 72
-0.0377473 5.27603 12.8409 98 48 29
0.426885 5.10311 12.4846 126 78 66
0.0351005 5.34591 12.868 108 60 42
0.548007 5.40486 12.9642 114 74 60
-3.75753 -7.77746 18.4833 94 101 55
1.58751 -1.90915 11.9587 146 151 110
-1.80602 -0.358513 12.7377 145 138 80
-2.21687 0.488112 12.5909 73 54 31
-2.41192 0.68254 12.6132 70 54 30
0.183407 0.957273 10.6075 84 61 44
-0.930301 0.95498 7.89932 90 91 62
-2.20492 1.3041 12.7864 78 60 48
-1.43153 1.133 7.95299 132 122 101
-1.89466 1.63112 11.3477 67 36 18
-1.63326 1.64885 11.0667 153 114 86
1.24412 1.44422 9.91956 117 76 48
2.2534 1.51136 10.5502 74 35 23
1.55095 1.58156 9.1321 158 110 86
-1.51331 2.21294 11.78 60 30 23
-1.07508 1.68356 6.73607 100 100 80
2.92868 2.22627 13.6401 48 26 18
2.81776 2.74343 13.9503 33 15 10
-0.37155 2.67227 10.9001 38 8 2
2.80785 3.19532 13.9609 84 61 44
-0.633947 3.20341 11.5527 40 9 0
2.67688 3.37771 14.1657 38 11 4
-1.02689 3.48848 12.1308 116 86 76
-1.94459 3.97591 13.6882 128 98 80
2.65304 2.88395 9.39311 45 22 20
1.74418 4.15012 12.7381 82 52 49
2.0394 4.96628 14.1572 80 54 44
-1.11459 5.38456 13.915 93 63 58
0.149183 5.09141 12.5912 140 96 80
-3.49284 -1.87448 12.7281 130 128 74
-5.28656 -1.70409 14.6131 90 67 21
3.48993 -1.1818 12.7763 140 153 116
-3.26518 -0.744515 13.0284 102 83 44
0.72743 -0.882535 14.0988 145 146 109
-2.56221 -0.482807 11.532 114 98 49
0.109565 0.447425 12.114 76 71 56
-2.02327 0.654711 11.8515 92 75 52
-1.83262 1.26459 12.0133 72 58 44
-0.249027 1.05397 10.5155 14 7 2
0.357561 2.19722 9.9131 64 33 26
2.69291 2.40423 12.1695 50 25 22
2.92602 2.60503 13.1572 46 22 16
2.83305 2.9978 14.2687 90 58 37
1.1354 2.71576 10.8984 61 32 26
-0.778372 3.17971 11.5384 40 9 2
2.74462 3.2207 14.2355 84 52 32
-1.53273 3.50023 12.5622 146 130 114
-1.45432 2.7696 6.58763 62 60 34
-1.23015 2.69296 6.18411 80 74 49
-1.87934 2.98132 6.82602 156 144 127
0.667385 4.39042 13.0406 86 52 46
0.0594348 4.49311 11.9437 52 12 5
1.95259 4.45473 11.872 100 76 74
1.16361 -3.83473 13.4008 121 127 85
0.39669 -1.30395 13.4262 156 160 109
0.553574 -0.870071 11.5952 120 127 86
0.0960882 1.18755 10.2944 18 10 6
1.10556 1.47301 10.2899 120 81 55
-0.852071 1.68335 10.1127 46 15 8
2.05357 1.40087 9.40696 128 104 87
-1.82605 2.39178 11.9538 117 91 70
2.78074 3.01652 14.5954 89 59 39
-1.57855 3.46292 12.6475 148 130 114
2.73664 3.28417 14.5718 119 105 90
-1.12609 2.57695 6.29555 60 57 32
-1.27489 2.68624 6.32139 90 83 61
-1.44825 2.78394 6.29413 161 148 137
1.88121 4.15697 12.9405 59 27 24
-0.615092 4.94785 12.69 52 20 14
1.64389 4.7705 13.0294 78 46 44
0.00210616 5.16766 12.8902 110 60 40
1.30257 -2.13216 8.45464 105 112 72
2.82633 -2.32084 10.5074 68 72 48
1.30317 -1.95106 12.9454 145 148 114
1.02471 -1.54188 10.2383 111 116 78
0.886713 -0.905124 15.4968 96 72 36
-0.92299 0.940653 8.3065 122 118 94
-1.30306 1.6269 7.79775 26 32 12
1.31191 1.76805 9.98405 56 24 10
2.2667 2.20299 10.9276 40 16 12
0.128875 2.63783 10.7749 116 88 81
1.18503 2.74271 10.8738 112 95 88
2.83912 3.16599 13.8233 129 116 100
1.1566 3.38003 11.2625 122 103 97
2.54492 3.9756 14.804 110 95 81
1.09077 4.10448 11.8164 111 87 84
2.16394 4.73722 14.0221 102 76 69
1.64232 4.74438 12.9057 58 26 24
1.35461 5.16697 13.3889 66 42 40
1.07636 5.16334 12.8712 73 37 31
-2.75628 -7.02101 16.2673 88 93 46
0.945101 -3.00243 13.2512 106 108 66
2.09555 -1.72763 10.9721 63 68 49
-1.2702 1.56592 7.7965 82 92 68
-1.29849 2.37605 11.278 50 16 6
1.24757 2.02016 10.3916 108 84 77
-0.836201 2.32211 10.8067 93 48 34
1.11886 2.41344 10.9157 98 68 62
1.12081 2.76547 11.0495 108 91 85
-1.63806 2.91895 6.40728 144 131 114
0.216222 4.57744 12.2104 58 25 18
-0.427546 -1.99917 10.6978 138 136 92
1.04312 -1.69428 8.24228 86 88 78
0.961136 -1.6242 10.3722 145 151 111
-0.342729 -1.29912 10.8987 108 103 70
1.54105 -1.22995 11.2734 61 64 46
0.654513 -0.815025 15.6806 98 80 68
-1.61788 1.1984 11.6566 124 100 88
-1.42043 1.24962 11.1315 88 70 56
1.71717 1.49983 10.6387 112 93 78
-0.880035 1.99339 10.4211 31 8 4
1.16216 3.39686 11.4406 50 22 18
2.6125 3.90048 14.4602 106 89 74
1.79147 3.6918 12.8139 119 96 94
0.343967 5.16772 12.75 101 55 41
1.36115 -2.09077 8.27745 99 108 70
1.33467 -1.95642 8.56506 100 109 78
-1.69404 -1.9415 11.8275 84 83 60
2.33536 -1.9086 10.7364 78 81 57
1.7952 1.33536 10.3067 116 98 82
-1.23622 1.5689 7.71899 96 104 81
-0.90608 1.97625 10.7503 114 66 52
2.31359 2.88309 12.0027 95 66 62
2.18866 3.29563 11.1894 94 66 64
1.0945 3.99727 11.7482 114 83 77
1.00977 4.15162 12.1065 115 92 89
4.51953 -3.60645 10.1664 140 145 98
1.08187 -2.16765 6.94564 150 147 101
1.2424 -2.07424 8.70528 116 123 85
2.09697 -1.72199 10.9134 52 58 38
1.86741 -1.47334 10.965 71 74 57
-0.707512 0.568977 8.58815 118 108 68
-0.993855 1.00958 9.58325 63 44 22
-1.038 0.969024 8.06969 88 86 57
-2.12896 1.77523 11.7129 132 111 88
1.05949 1.70884 10.2711 182 133 104
1.32734 1.96838 10.1047 88 58 50
2.19929 2.58606 11.5796 42 18 14
-1.46148 3.424 12.4361 152 128 110
-1.49866 4.45619 13.4413 123 94 78
1.45954 -3.78327 12.6696 114 123 76
2.12383 2.3024 11.2289 33 10 7
2.73183 3.64431 14.2047 78 48 30
-1.57199 2.84868 6.58593 85 78 50
3.08362 0.44857 11.8561 38 20 10
-0.888343 1.47104 9.30299 94 63 42
-0.121616 1.75269 9.83368 158 108 78
-1.1762 1.78388 7.27129 161 150 130
2.08734 2.0357 11.478 41 17 16
2.63773 3.69373 14.5852 77 41 25
1.44971 -2.00901 12.4707 134 140 98
1.94705 3.46639 11.9934 56 28 24
-1.41941 4.33139 13.1819 128 102 86
2.12624 -5.63722 14.0387 125 137 93
5.13339 -3.82797 9.52041 98 102 56
4.70407 -3.63658 10.078 112 113 70
1.51919 -1.25014 11.4226 76 79 64
-1.26163 1.57219 7.77899 85 96 72
1.01993 3.62609 11.5854 41 8 2
2.49387 3.92268 13.498 110 88 82
2.14064 -5.62246 13.9581 116 128 85
0.850823 -2.66257 13.2395 126 132 87
2.08124 -1.77124 11.1351 56 62 42
1.28156 -1.96728 13.0319 114 120 84
1.09144 -0.78959 15.5727 154 127 86
-1.69595 1.51798 10.8331 138 96 74
-1.56698 2.03877 7.00575 91 94 72
2.68394 3.37596 14.4457 53 26 14
1.13515 3.40379 11.517 53 25 20
-2.13348 2.92255 6.39535 87 81 60
-2.70916 -6.98056 16.1403 95 100 52
3.9386 -3.08831 10.172 88 90 66
0.869579 -0.896089 15.6648 99 72 36
-1.96093 1.61891 11.3036 120 92 71
-0.0924393 1.74709 10.0573 164 116 91
-1.25052 1.74012 6.97715 102 103 80
2.63527 2.90712 12.7977 25 14 13
3.05222 -2.53864 10.4103 54 62 35
1.74486 -2.20112 13.2533 56 60 37
2.5618 2.88402 12.8487 57 34 28
1.2834 -4.12243 13.6658 74 84 42
1.98633 -2.45707 13.2501 64 68 47
-2.95353 -0.985188 13.2561 142 131 80
-1.75466 1.8379 8.37838 160 150 130
1.65003 4.78978 13.1126 109 86 84
-2.47393 -6.68834 15.4377 102 105 60
1.40516 -3.31022 11.9853 153 158 109
-0.287963 2.67195 10.8401 32 6 2
-2.13514 2.92277 6.40907 73 69 46
2.13418 4.86421 13.8449 80 52 44
-0.233994 1.70295 10.0988 96 50 28
4.60167 -3.63073 10.2142 160 162 116
2.82627 -2.3247 10.4979 56 60 34
-1.80589 2.35565 6.86416 84 87 65
-1.83617 2.367 6.90047 82 84 62
2.54913 0.395504 2.38347 137 129 93
1.79655 4.23933 12.9361 80 55 52
-1.57112 2.82831 6.67321 68 64 36
-2.9759 1.3212 14.8673 51 28 11
5.17403 -3.8286 9.4483 144 144 106
4.95597 -3.66355 9.64622 142 142 101
0.875965 -2.65958 13.1994 86 90 50
0.678296 -0.849535 15.4459 74 58 41
0.876503 -0.823755 15.4843 164 155 120
-1.29544 1.56488 7.85224 116 122 103
2.36666 1.53729 10.5495 118 84 77
2.07694 2.6786 11.7744 126 103 100
2.64556 2.85131 13.08 113 97 94
2.71114 3.35055 14.1722 39 12 4
2.52406 3.87546 13.3132 122 98 94
1.86753 4.01403 12.1807 58 30 27
2.43265 4.46252 13.4449 118 92 85
0.292624 4.52217 11.9614 56 20 14
2.03104 4.97108 13.7414 96 75 68
1.50546 4.95861 12.974 122 101 98
2.52485 -2.07879 10.5595 48 50 28
1.81494 -1.54681 11.2909 50 54 40
0.618196 -0.87181 15.5942 75 56 34
-0.461001 0.567507 9.41249 36 31 22
1.77737 0.96355 10.1635 32 34 22
-0.97696 1.41801 7.65847 36 46 30
-1.26852 1.57887 7.74868 94 98 78
1.44177 1.59516 9.61158 124 95 73
-1.39894 1.75573 7.23317 93 94 72
-1.42422 1.81528 7.20376 106 105 86
0.103251 2.32714 10.6183 111 86 82
2.08757 2.67038 11.4857 34 6 2
2.58522 3.38105 13.1741 102 83 80
1.86556 4.03388 12.3746 124 102 100
1.89698 4.06839 12.2246 108 87 82
-0.546861 4.52294 12.4201 106 62 54
2.60559 -2.09531 10.4724 58 62 38
0.670107 -0.858455 15.3847 80 61 39
0.673225 -0.826622 15.6259 100 88 74
-2.07301 1.76281 11.6242 120 96 74
-1.62035 1.47118 7.78455 138 130 110
-1.52928 2.03021 6.94891 88 89 70
-0.794166 3.43351 11.7833 52 16 6
5.10803 -3.68149 9.69279 39 46 24
3.9685 -3.05764 10.02 86 86 66
3.37532 -2.66478 10.008 78 81 54
2.5995 -2.15263 10.562 56 60 38
-4.26662 -1.77173 13.7852 104 99 56
-0.866718 0.959458 8.15614 112 111 84
-1.0717 1.19724 10.5498 107 82 70
-1.36433 1.58674 7.91531 66 70 50
-1.42265 1.76664 7.25961 108 106 86
2.56996 3.95552 14.6836 102 83 69
2.51952 4.03821 14.4622 48 20 8
1.90674 4.03038 12.1818 99 79 75
2.08942 -3.59318 11.065 107 117 72
-2.84553 -0.836796 12.6286 77 64 22
-2.18647 -0.734858 11.282 88 72 34
1.40351 0.096861 5.47853 100 92 60
